-36.6908 49.9197 -72.0000
-36.6908 49.9197 -73.0000
-36.6908 49.9197 -74.0000
-36.6908 49.9197 -75.0000
-36.6908 49.9197 -76.0000
-36.6908 49.9197 -77.0000
-36.6908 49.9197 -78.0000
-36.6908 49.9197 -79.0000
-36.6908 49.9197 -80.0000
-36.6908 49.9197 -81.0000
-36.6908 49.9197 -82.0000
-36.6908 49.9197 -83.0000
-36.6908 49.9197 -84.0000
-36.6908 49.9197 -85.0000
-36.6908 49.9197 -86.0000
-36.6908 49.9197 -87.0000
-36.6908 49.9197 -88.0000
-38.3586 52.1888 -89.0000
-45.0297 61.2651 -90.0000
-46.6974 63.5342 -91.0000
-48.3652 65.8033 -92.0000
-53.3685 72.6105 -93.0000
-55.0363 74.8796 -94.0000
-55.0363 74.8796 -95.0000
-55.0363 74.8796 -96.0000
-55.0363 74.8796 -97.0000
-53.3685 72.6105 -98.0000
-53.3685 72.6105 -99.0000
-53.3685 72.6105 -100.0000
-55.9999 70.6009 -33.0000
-54.2499 68.3947 -34.0000
-54.2499 68.3947 -35.0000
-54.2499 68.3947 -36.0000
-54.2499 68.3947 -37.0000
-54.2499 68.3947 -38.0000
-54.2499 68.3947 -39.0000
-54.2499 68.3947 -40.0000
-54.2499 68.3947 -41.0000
-52.4999 66.1884 -42.0000
-47.2499 59.5696 -43.0000
-43.7499 55.1570 -44.0000
-38.4999 48.5381 -45.0000
-36.7499 46.3319 -46.0000
-36.7499 46.3319 -47.0000
-36.7499 46.3319 -48.0000
-36.7499 46.3319 -49.0000
-36.7499 46.3319 -50.0000
-36.7499 46.3319 -51.0000
-36.7499 46.3319 -52.0000
-36.7499 46.3319 -53.0000
-36.7499 46.3319 -54.0000
-38.4999 48.5381 -55.0000
-38.4999 48.5381 -56.0000
-38.4999 48.5381 -57.0000
-38.4999 48.5381 -58.0000
-38.4999 48.5381 -59.0000
-38.4999 48.5381 -60.0000
-38.4999 48.5381 -61.0000
-38.4999 48.5381 -62.0000
-38.4999 48.5381 -63.0000
-38.4999 48.5381 -64.0000
-38.4999 48.5381 -65.0000
-38.4999 48.5381 -66.0000
-38.4999 48.5381 -67.0000
-38.4999 48.5381 -68.0000
-38.4999 48.5381 -69.0000
-38.4999 48.5381 -70.0000
-38.4999 48.5381 -71.0000
-38.4999 48.5381 -72.0000
-38.4999 48.5381 -73.0000
-38.4999 48.5381 -74.0000
-38.4999 48.5381 -75.0000
-38.4999 48.5381 -76.0000
-38.4999 48.5381 -77.0000
-38.4999 48.5381 -78.0000
-38.4999 48.5381 -79.0000
-38.4999 48.5381 -80.0000
-38.4999 48.5381 -81.0000
-38.4999 48.5381 -82.0000
-38.4999 48.5381 -83.0000
-38.4999 48.5381 -84.0000
-38.4999 48.5381 -85.0000
-40.2499 50.7444 -86.0000
-40.2499 50.7444 -87.0000
-40.2499 50.7444 -88.0000
-40.2499 50.7444 -89.0000
-47.2499 59.5696 -90.0000
-50.7499 63.9821 -91.0000
-50.7499 63.9821 -92.0000
-55.9999 70.6009 -93.0000
-57.7499 72.8072 -94.0000
-57.7499 72.8072 -95.0000
-57.7499 72.8072 -96.0000
-57.7499 72.8072 -97.0000
-57.7499 72.8072 -98.0000
-55.9999 70.6009 -99.0000
-55.9999 70.6009 -100.0000
-56.7258 66.3556 -34.0000
-56.7258 66.3556 -35.0000
-56.7258 66.3556 -36.0000
-56.7258 66.3556 -37.0000
-56.7258 66.3556 -38.0000
-56.7258 66.3556 -39.0000
-56.7258 66.3556 -40.0000
-56.7258 66.3556 -41.0000
-56.7258 66.3556 -42.0000
-49.4063 57.7936 -43.0000
-45.7466 53.5126 -44.0000
-40.2570 47.0911 -45.0000
-40.2570 47.0911 -46.0000
-40.2570 47.0911 -47.0000
-40.2570 47.0911 -48.0000
-40.2570 47.0911 -49.0000
-40.2570 47.0911 -50.0000
-40.2570 47.0911 -51.0000
-40.2570 47.0911 -52.0000
-40.2570 47.0911 -53.0000
-40.2570 47.0911 -54.0000
-40.2570 47.0911 -55.0000
-40.2570 47.0911 -56.0000
-40.2570 47.0911 -57.0000
-40.2570 47.0911 -58.0000
-40.2570 47.0911 -59.0000
-40.2570 47.0911 -60.0000
-40.2570 47.0911 -61.0000
-40.2570 47.0911 -62.0000
-40.2570 47.0911 -63.0000
-40.2570 47.0911 -64.0000
-40.2570 47.0911 -65.0000
-40.2570 47.0911 -66.0000
-40.2570 47.0911 -67.0000
-40.2570 47.0911 -68.0000
-40.2570 47.0911 -69.0000
-40.2570 47.0911 -70.0000
-40.2570 47.0911 -71.0000
-40.2570 47.0911 -72.0000
-40.2570 47.0911 -73.0000
-40.2570 47.0911 -74.0000
-40.2570 47.0911 -75.0000
-40.2570 47.0911 -76.0000
-40.2570 47.0911 -77.0000
-40.2570 47.0911 -78.0000
-40.2570 47.0911 -79.0000
-40.2570 47.0911 -80.0000
-40.2570 47.0911 -81.0000
-40.2570 47.0911 -82.0000
-40.2570 47.0911 -83.0000
-40.2570 47.0911 -84.0000
-42.0869 49.2316 -85.0000
-42.0869 49.2316 -86.0000
-42.0869 49.2316 -87.0000
-42.0869 49.2316 -88.0000
-42.0869 49.2316 -89.0000
-49.4063 57.7936 -90.0000
-53.0661 62.0746 -91.0000
-53.0661 62.0746 -92.0000
-58.5556 68.4961 -93.0000
-60.3855 70.6366 -94.0000
-60.3855 70.6366 -95.0000
-60.3855 70.6366 -96.0000
-60.3855 70.6366 -97.0000
-60.3855 70.6366 -98.0000
-58.5556 68.4961 -99.0000
-58.5556 68.4961 -100.0000
-61.0323 66.2988 -34.0000
-59.1251 64.2270 -35.0000
-59.1251 64.2270 -36.0000
-61.0323 66.2988 -37.0000
-61.0323 66.2988 -38.0000
-61.0323 66.2988 -39.0000
-59.1251 64.2270 -40.0000
-59.1251 64.2270 -41.0000
-59.1251 64.2270 -42.0000
-55.3106 60.0833 -43.0000
-49.5888 53.8678 -44.0000
-43.8670 47.6523 -45.0000
-41.9597 45.5804 -46.0000
-41.9597 45.5804 -47.0000
-41.9597 45.5804 -48.0000
-41.9597 45.5804 -49.0000
-41.9597 45.5804 -50.0000
-41.9597 45.5804 -51.0000
-41.9597 45.5804 -52.0000
-41.9597 45.5804 -53.0000
-41.9597 45.5804 -54.0000
-41.9597 45.5804 -55.0000
-41.9597 45.5804 -56.0000
-41.9597 45.5804 -57.0000
-41.9597 45.5804 -58.0000
-41.9597 45.5804 -59.0000
-41.9597 45.5804 -60.0000
-41.9597 45.5804 -61.0000
-41.9597 45.5804 -62.0000
-41.9597 45.5804 -63.0000
-41.9597 45.5804 -64.0000
-41.9597 45.5804 -65.0000
-41.9597 45.5804 -66.0000
-41.9597 45.5804 -67.0000
-41.9597 45.5804 -68.0000
-41.9597 45.5804 -69.0000
-41.9597 45.5804 -70.0000
-41.9597 45.5804 -71.0000
-41.9597 45.5804 -72.0000
-41.9597 45.5804 -73.0000
-41.9597 45.5804 -74.0000
-41.9597 45.5804 -75.0000
-41.9597 45.5804 -76.0000
-41.9597 45.5804 -77.0000
-41.9597 45.5804 -78.0000
-41.9597 45.5804 -79.0000
-41.9597 45.5804 -80.0000
-41.9597 45.5804 -81.0000
-41.9597 45.5804 -82.0000
-41.9597 45.5804 -83.0000
-41.9597 45.5804 -84.0000
-43.8670 47.6523 -85.0000
-43.8670 47.6523 -86.0000
-43.8670 47.6523 -87.0000
-43.8670 47.6523 -88.0000
-43.8670 47.6523 -89.0000
-51.4960 55.9396 -90.0000
-55.3106 60.0833 -91.0000
-55.3106 60.0833 -92.0000
-61.0323 66.2988 -93.0000
-62.9396 68.3706 -94.0000
-62.9396 68.3706 -95.0000
-62.9396 68.3706 -96.0000
-62.9396 68.3706 -97.0000
-62.9396 68.3706 -98.0000
-61.0323 66.2988 -99.0000
-62.9396 68.3706 -100.0000
-63.4267 64.0120 -34.0000
-63.4267 64.0120 -35.0000
-63.4267 64.0120 -36.0000
-65.4088 66.0124 -37.0000
-65.4088 66.0124 -38.0000
-65.4088 66.0124 -39.0000
-65.4088 66.0124 -40.0000
-63.4267 64.0120 -41.0000
-61.4446 62.0116 -42.0000
-57.4804 58.0109 -43.0000
-51.5342 52.0097 -44.0000
-45.5879 46.0086 -45.0000
-43.6058 44.0082 -46.0000
-43.6058 44.0082 -47.0000
-43.6058 44.0082 -48.0000
-43.6058 44.0082 -49.0000
-43.6058 44.0082 -50.0000
-43.6058 44.0082 -51.0000
-43.6058 44.0082 -52.0000
-43.6058 44.0082 -53.0000
-43.6058 44.0082 -54.0000
-43.6058 44.0082 -55.0000
-43.6058 44.0082 -56.0000
-43.6058 44.0082 -57.0000
-43.6058 44.0082 -58.0000
-43.6058 44.0082 -59.0000
-43.6058 44.0082 -60.0000
-43.6058 44.0082 -61.0000
-43.6058 44.0082 -62.0000
-43.6058 44.0082 -63.0000
-43.6058 44.0082 -64.0000
-43.6058 44.0082 -65.0000
-43.6058 44.0082 -66.0000
-43.6058 44.0082 -67.0000
-43.6058 44.0082 -68.0000
-43.6058 44.0082 -69.0000
-43.6058 44.0082 -70.0000
-43.6058 44.0082 -71.0000
-43.6058 44.0082 -72.0000
-43.6058 44.0082 -73.0000
-43.6058 44.0082 -74.0000
-43.6058 44.0082 -75.0000
-43.6058 44.0082 -76.0000
-43.6058 44.0082 -77.0000
-43.6058 44.0082 -78.0000
-43.6058 44.0082 -79.0000
-43.6058 44.0082 -80.0000
-43.6058 44.0082 -81.0000
-43.6058 44.0082 -82.0000
-43.6058 44.0082 -83.0000
-43.6058 44.0082 -84.0000
-45.5879 46.0086 -85.0000
-45.5879 46.0086 -86.0000
-45.5879 46.0086 -87.0000
-45.5879 46.0086 -88.0000
-45.5879 46.0086 -89.0000
-53.5163 54.0101 -90.0000
-57.4804 58.0109 -91.0000
-57.4804 58.0109 -92.0000
-61.4446 62.0116 -93.0000
-65.4088 66.0124 -94.0000
-65.4088 66.0124 -95.0000
-65.4088 66.0124 -96.0000
-65.4088 66.0124 -97.0000
-65.4088 66.0124 -98.0000
-63.4267 64.0120 -99.0000
-63.4267 64.0120 -100.0000
-65.7354 61.6388 -34.0000
-65.7354 61.6388 -35.0000
-67.7896 63.5650 -36.0000
-67.7896 63.5650 -37.0000
-67.7896 63.5650 -38.0000
-67.7896 63.5650 -39.0000
-67.7896 63.5650 -40.0000
-67.7896 63.5650 -41.0000
-63.6811 59.7126 -42.0000
-59.5727 55.8602 -43.0000
-55.4642 52.0077 -44.0000
-49.3015 46.2291 -45.0000
-45.1931 42.3767 -46.0000
-45.1931 42.3767 -47.0000
-45.1931 42.3767 -48.0000
-45.1931 42.3767 -49.0000
-45.1931 42.3767 -50.0000
-45.1931 42.3767 -51.0000
-45.1931 42.3767 -52.0000
-45.1931 42.3767 -53.0000
-45.1931 42.3767 -54.0000
-45.1931 42.3767 -55.0000
-45.1931 42.3767 -56.0000
-45.1931 42.3767 -57.0000
-45.1931 42.3767 -58.0000
-45.1931 42.3767 -59.0000
-45.1931 42.3767 -60.0000
-45.1931 42.3767 -61.0000
-45.1931 42.3767 -62.0000
-45.1931 42.3767 -63.0000
-45.1931 42.3767 -64.0000
-47.2473 44.3029 -65.0000
-47.2473 44.3029 -66.0000
-47.2473 44.3029 -67.0000
-47.2473 44.3029 -68.0000
-47.2473 44.3029 -69.0000
-47.2473 44.3029 -70.0000
-47.2473 44.3029 -71.0000
-47.2473 44.3029 -72.0000
-45.1931 42.3767 -73.0000
-45.1931 42.3767 -74.0000
-45.1931 42.3767 -75.0000
-45.1931 42.3767 -76.0000
-45.1931 42.3767 -77.0000
-45.1931 42.3767 -78.0000
-45.1931 42.3767 -79.0000
-45.1931 42.3767 -80.0000
-45.1931 42.3767 -81.0000
-45.1931 42.3767 -82.0000
-45.1931 42.3767 -83.0000
-47.2473 44.3029 -84.0000
-47.2473 44.3029 -85.0000
-47.2473 44.3029 -86.0000
-47.2473 44.3029 -87.0000
-47.2473 44.3029 -88.0000
-47.2473 44.3029 -89.0000
-55.4642 52.0077 -90.0000
-59.5727 55.8602 -91.0000
-59.5727 55.8602 -92.0000
-63.6811 59.7126 -93.0000
-67.7896 63.5650 -94.0000
-67.7896 63.5650 -95.0000
-67.7896 63.5650 -96.0000
-67.7896 63.5650 -97.0000
-67.7896 63.5650 -98.0000
-67.7896 63.5650 -99.0000
-67.7896 63.5650 -100.0000
-67.9553 59.1824 -34.0000
-67.9553 59.1824 -35.0000
-70.0789 61.0318 -36.0000
-70.0789 61.0318 -37.0000
-70.0789 61.0318 -38.0000
-70.0789 61.0318 -39.0000
-70.0789 61.0318 -40.0000
-70.0789 61.0318 -41.0000
-67.9553 59.1824 -42.0000
-61.5845 53.6340 -43.0000
-57.3373 49.9351 -44.0000
-53.0901 46.2362 -45.0000
-46.7193 40.6879 -46.0000
-46.7193 40.6879 -47.0000
-46.7193 40.6879 -48.0000
-46.7193 40.6879 -49.0000
-46.7193 40.6879 -50.0000
-46.7193 40.6879 -51.0000
-46.7193 40.6879 -52.0000
-46.7193 40.6879 -53.0000
-46.7193 40.6879 -54.0000
-46.7193 40.6879 -55.0000
-46.7193 40.6879 -56.0000
-46.7193 40.6879 -57.0000
-46.7193 40.6879 -58.0000
-46.7193 40.6879 -59.0000
-46.7193 40.6879 -60.0000
-46.7193 40.6879 -61.0000
-46.7193 40.6879 -62.0000
-46.7193 40.6879 -63.0000
-48.8429 42.5373 -64.0000
-48.8429 42.5373 -65.0000
-48.8429 42.5373 -66.0000
-48.8429 42.5373 -67.0000
-48.8429 42.5373 -68.0000
-48.8429 42.5373 -69.0000
-48.8429 42.5373 -70.0000
-48.8429 42.5373 -71.0000
-48.8429 42.5373 -72.0000
-48.8429 42.5373 -73.0000
-48.8429 42.5373 -74.0000
-48.8429 42.5373 -75.0000
-48.8429 42.5373 -76.0000
-48.8429 42.5373 -77.0000
-48.8429 42.5373 -78.0000
-48.8429 42.5373 -79.0000
-48.8429 42.5373 -80.0000
-48.8429 42.5373 -81.0000
-48.8429 42.5373 -82.0000
-48.8429 42.5373 -83.0000
-48.8429 42.5373 -84.0000
-48.8429 42.5373 -85.0000
-48.8429 42.5373 -86.0000
-48.8429 42.5373 -87.0000
-48.8429 42.5373 -88.0000
-48.8429 42.5373 -89.0000
-59.4609 51.7846 -90.0000
-61.5845 53.6340 -91.0000
-61.5845 53.6340 -92.0000
-63.7081 55.4835 -93.0000
-70.0789 61.0318 -94.0000
-70.0789 61.0318 -95.0000
-70.0789 61.0318 -96.0000
-70.0789 61.0318 -97.0000
-70.0789 61.0318 -98.0000
-70.0789 61.0318 -99.0000
-70.0789 61.0318 -100.0000
-72.2025 62.8812 -101.0000
-72.2737 58.4162 -34.0000
-70.0836 56.6460 -35.0000
-72.2737 58.4162 -36.0000
-72.2737 58.4162 -37.0000
-72.2737 58.4162 -38.0000
-72.2737 58.4162 -39.0000
-72.2737 58.4162 -40.0000
-72.2737 58.4162 -41.0000
-70.0836 56.6460 -42.0000
-63.5132 51.3355 -43.0000
-59.1330 47.7951 -44.0000
-54.7528 44.2547 -45.0000
-50.3726 40.7143 -46.0000
-48.1824 38.9442 -47.0000
-48.1824 38.9442 -48.0000
-48.1824 38.9442 -49.0000
-48.1824 38.9442 -50.0000
-48.1824 38.9442 -51.0000
-48.1824 38.9442 -52.0000
-48.1824 38.9442 -53.0000
-48.1824 38.9442 -54.0000
-48.1824 38.9442 -55.0000
-48.1824 38.9442 -56.0000
-48.1824 38.9442 -57.0000
-48.1824 38.9442 -58.0000
-48.1824 38.9442 -59.0000
-48.1824 38.9442 -60.0000
-48.1824 38.9442 -61.0000
-48.1824 38.9442 -62.0000
-48.1824 38.9442 -63.0000
-50.3726 40.7143 -64.0000
-50.3726 40.7143 -65.0000
-50.3726 40.7143 -66.0000
-50.3726 40.7143 -67.0000
-50.3726 40.7143 -68.0000
-50.3726 40.7143 -69.0000
-50.3726 40.7143 -70.0000
-50.3726 40.7143 -71.0000
-50.3726 40.7143 -72.0000
-50.3726 40.7143 -73.0000
-50.3726 40.7143 -74.0000
-50.3726 40.7143 -75.0000
-50.3726 40.7143 -76.0000
-50.3726 40.7143 -77.0000
-50.3726 40.7143 -78.0000
-50.3726 40.7143 -79.0000
-50.3726 40.7143 -80.0000
-52.5627 42.4845 -81.0000
-52.5627 42.4845 -82.0000
-52.5627 42.4845 -83.0000
-50.3726 40.7143 -84.0000
-50.3726 40.7143 -85.0000
-50.3726 40.7143 -86.0000
-50.3726 40.7143 -87.0000
-50.3726 40.7143 -88.0000
-50.3726 40.7143 -89.0000
-59.1330 47.7951 -90.0000
-63.5132 51.3355 -91.0000
-63.5132 51.3355 -92.0000
-65.7033 53.1057 -93.0000
-72.2737 58.4162 -94.0000
-72.2737 58.4162 -95.0000
-74.4638 60.1864 -96.0000
-72.2737 58.4162 -97.0000
-74.4638 60.1864 -98.0000
-74.4638 60.1864 -99.0000
-72.2737 58.4162 -100.0000
-72.2737 58.4162 -101.0000
-74.3708 55.7218 -34.0000
-72.1172 54.0332 -35.0000
-74.3708 55.7218 -36.0000
-74.3708 55.7218 -37.0000
-74.3708 55.7218 -38.0000
-74.3708 55.7218 -39.0000
-74.3708 55.7218 -40.0000
-74.3708 55.7218 -41.0000
-74.3708 55.7218 -42.0000
-69.8635 52.3447 -43.0000
-63.1025 47.2791 -44.0000
-56.3415 42.2135 -45.0000
-54.0879 40.5249 -46.0000
-51.8342 38.8364 -47.0000
-49.5806 37.1479 -48.0000
-49.5806 37.1479 -49.0000
-51.8342 38.8364 -50.0000
-51.8342 38.8364 -51.0000
-49.5806 37.1479 -52.0000
-49.5806 37.1479 -53.0000
-51.8342 38.8364 -54.0000
-51.8342 38.8364 -55.0000
-51.8342 38.8364 -56.0000
-51.8342 38.8364 -57.0000
-51.8342 38.8364 -58.0000
-51.8342 38.8364 -59.0000
-51.8342 38.8364 -60.0000
-51.8342 38.8364 -61.0000
-51.8342 38.8364 -62.0000
-51.8342 38.8364 -63.0000
-51.8342 38.8364 -64.0000
-51.8342 38.8364 -65.0000
-51.8342 38.8364 -66.0000
-51.8342 38.8364 -67.0000
-51.8342 38.8364 -68.0000
-51.8342 38.8364 -69.0000
-51.8342 38.8364 -70.0000
-51.8342 38.8364 -71.0000
-51.8342 38.8364 -72.0000
-51.8342 38.8364 -73.0000
-51.8342 38.8364 -74.0000
-51.8342 38.8364 -75.0000
-51.8342 38.8364 -76.0000
-51.8342 38.8364 -77.0000
-51.8342 38.8364 -78.0000
-51.8342 38.8364 -79.0000
-54.0879 40.5249 -80.0000
-54.0879 40.5249 -81.0000
-54.0879 40.5249 -82.0000
-54.0879 40.5249 -83.0000
-54.0879 40.5249 -84.0000
-54.0879 40.5249 -85.0000
-51.8342 38.8364 -86.0000
-51.8342 38.8364 -87.0000
-51.8342 38.8364 -88.0000
-51.8342 38.8364 -89.0000
-58.5952 43.9020 -90.0000
-65.3562 48.9676 -91.0000
-65.3562 48.9676 -92.0000
-67.6099 50.6562 -93.0000
-76.6245 57.4103 -94.0000
-76.6245 57.4103 -95.0000
-78.8782 59.0989 -96.0000
-76.6245 57.4103 -97.0000
-76.6245 57.4103 -98.0000
-76.6245 57.4103 -99.0000
-74.3708 55.7218 -100.0000
-74.3708 55.7218 -101.0000
-76.3676 52.9521 -34.0000
-76.3676 52.9521 -35.0000
-76.3676 52.9521 -36.0000
-76.3676 52.9521 -37.0000
-76.3676 52.9521 -38.0000
-76.3676 52.9521 -39.0000
-76.3676 52.9521 -40.0000
-76.3676 52.9521 -41.0000
-76.3676 52.9521 -42.0000
-71.7393 49.7429 -43.0000
-64.7968 44.9291 -44.0000
-60.1684 41.7199 -45.0000
-55.5401 38.5106 -46.0000
-55.5401 38.5106 -47.0000
-53.2259 36.9060 -48.0000
-53.2259 36.9060 -49.0000
-53.2259 36.9060 -50.0000
-53.2259 36.9060 -51.0000
-53.2259 36.9060 -52.0000
-53.2259 36.9060 -53.0000
-53.2259 36.9060 -54.0000
-53.2259 36.9060 -55.0000
-53.2259 36.9060 -56.0000
-53.2259 36.9060 -57.0000
-53.2259 36.9060 -58.0000
-53.2259 36.9060 -59.0000
-53.2259 36.9060 -60.0000
-53.2259 36.9060 -61.0000
-53.2259 36.9060 -62.0000
-53.2259 36.9060 -63.0000
-53.2259 36.9060 -64.0000
-53.2259 36.9060 -65.0000
-53.2259 36.9060 -66.0000
-53.2259 36.9060 -67.0000
-53.2259 36.9060 -68.0000
-53.2259 36.9060 -69.0000
-53.2259 36.9060 -70.0000
-53.2259 36.9060 -71.0000
-53.2259 36.9060 -72.0000
-53.2259 36.9060 -73.0000
-53.2259 36.9060 -74.0000
-53.2259 36.9060 -75.0000
-53.2259 36.9060 -76.0000
-55.5401 38.5106 -77.0000
-55.5401 38.5106 -78.0000
-55.5401 38.5106 -79.0000
-55.5401 38.5106 -80.0000
-55.5401 38.5106 -81.0000
-55.5401 38.5106 -82.0000
-55.5401 38.5106 -83.0000
-55.5401 38.5106 -84.0000
-55.5401 38.5106 -85.0000
-55.5401 38.5106 -86.0000
-55.5401 38.5106 -87.0000
-53.2259 36.9060 -88.0000
-55.5401 38.5106 -89.0000
-57.8542 40.1153 -90.0000
-67.1109 46.5337 -91.0000
-69.4251 48.1383 -92.0000
-71.7393 49.7429 -93.0000
-78.6818 54.5567 -94.0000
-78.6818 54.5567 -95.0000
-80.9959 56.1613 -96.0000
-80.9959 56.1613 -97.0000
-78.6818 54.5567 -98.0000
-78.6818 54.5567 -99.0000
-78.6818 54.5567 -100.0000
-76.3676 52.9521 -101.0000
-78.2613 50.1110 -34.0000
-78.2613 50.1110 -35.0000
-78.2613 50.1110 -36.0000
-78.2613 50.1110 -37.0000
-78.2613 50.1110 -38.0000
-78.2613 50.1110 -39.0000
-78.2613 50.1110 -40.0000
-78.2613 50.1110 -41.0000
-78.2613 50.1110 -42.0000
-73.5182 47.0740 -43.0000
-68.7751 44.0369 -44.0000
-61.6604 39.4814 -45.0000
-56.9173 36.4443 -46.0000
-56.9173 36.4443 -47.0000
-56.9173 36.4443 -48.0000
-56.9173 36.4443 -49.0000
-54.5457 34.9258 -50.0000
-54.5457 34.9258 -51.0000
-54.5457 34.9258 -52.0000
-54.5457 34.9258 -53.0000
-54.5457 34.9258 -54.0000
-54.5457 34.9258 -55.0000
-54.5457 34.9258 -56.0000
-54.5457 34.9258 -57.0000
-54.5457 34.9258 -58.0000
-54.5457 34.9258 -59.0000
-54.5457 34.9258 -60.0000
-54.5457 34.9258 -61.0000
-54.5457 34.9258 -62.0000
-54.5457 34.9258 -63.0000
-54.5457 34.9258 -64.0000
-54.5457 34.9258 -65.0000
-54.5457 34.9258 -66.0000
-54.5457 34.9258 -67.0000
-54.5457 34.9258 -68.0000
-54.5457 34.9258 -69.0000
-54.5457 34.9258 -70.0000
-54.5457 34.9258 -71.0000
-54.5457 34.9258 -72.0000
-54.5457 34.9258 -73.0000
-56.9173 36.4443 -74.0000
-56.9173 36.4443 -75.0000
-56.9173 36.4443 -76.0000
-56.9173 36.4443 -77.0000
-56.9173 36.4443 -78.0000
-56.9173 36.4443 -79.0000
-56.9173 36.4443 -80.0000
-56.9173 36.4443 -81.0000
-56.9173 36.4443 -82.0000
-56.9173 36.4443 -83.0000
-56.9173 36.4443 -84.0000
-56.9173 36.4443 -85.0000
-56.9173 36.4443 -86.0000
-56.9173 36.4443 -87.0000
-56.9173 36.4443 -88.0000
-56.9173 36.4443 -89.0000
-59.2889 37.9629 -90.0000
-68.7751 44.0369 -91.0000
-71.1466 45.5554 -92.0000
-73.5182 47.0740 -93.0000
-80.6328 51.6295 -94.0000
-80.6328 51.6295 -95.0000
-83.0044 53.1480 -96.0000
-83.0044 53.1480 -97.0000
-83.0044 53.1480 -98.0000
-80.6328 51.6295 -99.0000
-80.6328 51.6295 -100.0000
-78.2613 50.1110 -101.0000
-80.6328 51.6295 -102.0000
-82.4750 48.6325 -34.0000
-80.0493 47.2022 -35.0000
-80.0493 47.2022 -36.0000
-80.0493 47.2022 -37.0000
-80.0493 47.2022 -38.0000
-80.0493 47.2022 -39.0000
-80.0493 47.2022 -40.0000
-80.0493 47.2022 -41.0000
-80.0493 47.2022 -42.0000
-75.1978 44.3414 -43.0000
-70.3464 41.4807 -44.0000
-63.0692 37.1896 -45.0000
-58.2177 34.3289 -46.0000
-58.2177 34.3289 -47.0000
-58.2177 34.3289 -48.0000
-58.2177 34.3289 -49.0000
-58.2177 34.3289 -50.0000
-58.2177 34.3289 -51.0000
-58.2177 34.3289 -52.0000
-58.2177 34.3289 -53.0000
-58.2177 34.3289 -54.0000
-58.2177 34.3289 -55.0000
-58.2177 34.3289 -56.0000
-58.2177 34.3289 -57.0000
-58.2177 34.3289 -58.0000
-58.2177 34.3289 -59.0000
-58.2177 34.3289 -60.0000
-58.2177 34.3289 -61.0000
-58.2177 34.3289 -62.0000
-58.2177 34.3289 -63.0000
-58.2177 34.3289 -64.0000
-58.2177 34.3289 -65.0000
-58.2177 34.3289 -66.0000
-58.2177 34.3289 -67.0000
-58.2177 34.3289 -68.0000
-58.2177 34.3289 -69.0000
-58.2177 34.3289 -70.0000
-58.2177 34.3289 -71.0000
-58.2177 34.3289 -72.0000
-58.2177 34.3289 -73.0000
-58.2177 34.3289 -74.0000
-58.2177 34.3289 -75.0000
-58.2177 34.3289 -76.0000
-58.2177 34.3289 -77.0000
-58.2177 34.3289 -78.0000
-58.2177 34.3289 -79.0000
-58.2177 34.3289 -80.0000
-58.2177 34.3289 -81.0000
-58.2177 34.3289 -82.0000
-58.2177 34.3289 -83.0000
-58.2177 34.3289 -84.0000
-58.2177 34.3289 -85.0000
-58.2177 34.3289 -86.0000
-58.2177 34.3289 -87.0000
-58.2177 34.3289 -88.0000
-58.2177 34.3289 -89.0000
-60.6434 35.7592 -90.0000
-70.3464 41.4807 -91.0000
-72.7721 42.9111 -92.0000
-75.1978 44.3414 -93.0000
-82.4750 48.6325 -94.0000
-82.4750 48.6325 -95.0000
-84.9008 50.0629 -96.0000
-84.9008 50.0629 -97.0000
-84.9008 50.0629 -98.0000
-82.4750 48.6325 -99.0000
-82.4750 48.6325 -100.0000
-80.0493 47.2022 -101.0000
-84.2059 45.5700 -34.0000
-84.2059 45.5700 -35.0000
-81.7293 44.2297 -36.0000
-81.7293 44.2297 -37.0000
-81.7293 44.2297 -38.0000
-84.2059 45.5700 -39.0000
-84.2059 45.5700 -40.0000
-81.7293 44.2297 -41.0000
-81.7293 44.2297 -42.0000
-79.2526 42.8894 -43.0000
-71.8227 38.8685 -44.0000
-66.8694 36.1879 -45.0000
-61.9161 33.5073 -46.0000
-59.4395 32.1670 -47.0000
-59.4395 32.1670 -48.0000
-59.4395 32.1670 -49.0000
-59.4395 32.1670 -50.0000
-59.4395 32.1670 -51.0000
-59.4395 32.1670 -52.0000
-59.4395 32.1670 -53.0000
-59.4395 32.1670 -54.0000
-59.4395 32.1670 -55.0000
-59.4395 32.1670 -56.0000
-59.4395 32.1670 -57.0000
-59.4395 32.1670 -58.0000
-59.4395 32.1670 -59.0000
-59.4395 32.1670 -60.0000
-59.4395 32.1670 -61.0000
-59.4395 32.1670 -62.0000
-59.4395 32.1670 -63.0000
-59.4395 32.1670 -64.0000
-59.4395 32.1670 -65.0000
-59.4395 32.1670 -66.0000
-59.4395 32.1670 -67.0000
-59.4395 32.1670 -68.0000
-59.4395 32.1670 -69.0000
-59.4395 32.1670 -70.0000
-59.4395 32.1670 -71.0000
-59.4395 32.1670 -72.0000
-59.4395 32.1670 -73.0000
-59.4395 32.1670 -74.0000
-59.4395 32.1670 -75.0000
-59.4395 32.1670 -76.0000
-59.4395 32.1670 -77.0000
-59.4395 32.1670 -78.0000
-59.4395 32.1670 -79.0000
-59.4395 32.1670 -80.0000
-59.4395 32.1670 -81.0000
-59.4395 32.1670 -82.0000
-59.4395 32.1670 -83.0000
-59.4395 32.1670 -84.0000
-59.4395 32.1670 -85.0000
-59.4395 32.1670 -86.0000
-59.4395 32.1670 -87.0000
-59.4395 32.1670 -88.0000
-61.9161 33.5073 -89.0000
-61.9161 33.5073 -90.0000
-71.8227 38.8685 -91.0000
-74.2993 40.2088 -92.0000
-76.7760 41.5491 -93.0000
-81.7293 44.2297 -94.0000
-84.2059 45.5700 -95.0000
-86.6826 46.9103 -96.0000
-86.6826 46.9103 -97.0000
-86.6826 46.9103 -98.0000
-86.6826 46.9103 -99.0000
-84.2059 45.5700 -100.0000
-81.7293 44.2297 -101.0000
-85.8231 42.4459 -35.0000
-83.2989 41.1974 -36.0000
-83.2989 41.1974 -37.0000
-85.8231 42.4459 -38.0000
-85.8231 42.4459 -39.0000
-85.8231 42.4459 -40.0000
-85.8231 42.4459 -41.0000
-83.2989 41.1974 -42.0000
-80.7747 39.9490 -43.0000
-75.7263 37.4522 -44.0000
-70.6779 34.9554 -45.0000
-63.1052 31.2102 -46.0000
-60.5810 29.9618 -47.0000
-60.5810 29.9618 -48.0000
-60.5810 29.9618 -49.0000
-60.5810 29.9618 -50.0000
-60.5810 29.9618 -51.0000
-60.5810 29.9618 -52.0000
-60.5810 29.9618 -53.0000
-60.5810 29.9618 -54.0000
-60.5810 29.9618 -55.0000
-60.5810 29.9618 -56.0000
-60.5810 29.9618 -57.0000
-60.5810 29.9618 -58.0000
-60.5810 29.9618 -59.0000
-60.5810 29.9618 -60.0000
-60.5810 29.9618 -61.0000
-60.5810 29.9618 -62.0000
-60.5810 29.9618 -63.0000
-60.5810 29.9618 -64.0000
-60.5810 29.9618 -65.0000
-60.5810 29.9618 -66.0000
-60.5810 29.9618 -67.0000
-60.5810 29.9618 -68.0000
-60.5810 29.9618 -69.0000
-60.5810 29.9618 -70.0000
-60.5810 29.9618 -71.0000
-60.5810 29.9618 -72.0000
-60.5810 29.9618 -73.0000
-60.5810 29.9618 -74.0000
-60.5810 29.9618 -75.0000
-60.5810 29.9618 -76.0000
-60.5810 29.9618 -77.0000
-60.5810 29.9618 -78.0000
-60.5810 29.9618 -79.0000
-60.5810 29.9618 -80.0000
-60.5810 29.9618 -81.0000
-60.5810 29.9618 -82.0000
-60.5810 29.9618 -83.0000
-60.5810 29.9618 -84.0000
-60.5810 29.9618 -85.0000
-60.5810 29.9618 -86.0000
-60.5810 29.9618 -87.0000
-60.5810 29.9618 -88.0000
-63.1052 31.2102 -89.0000
-63.1052 31.2102 -90.0000
-73.2021 36.2038 -91.0000
-75.7263 37.4522 -92.0000
-78.2505 38.7006 -93.0000
-83.2989 41.1974 -94.0000
-88.3473 43.6943 -95.0000
-88.3473 43.6943 -96.0000
-88.3473 43.6943 -97.0000
-88.3473 43.6943 -98.0000
-88.3473 43.6943 -99.0000
-85.8231 42.4459 -100.0000
-85.8231 42.4459 -101.0000
-87.3245 39.2645 -35.0000
-87.3245 39.2645 -36.0000
-87.3245 39.2645 -37.0000
-89.8928 40.4193 -38.0000
-89.8928 40.4193 -39.0000
-89.8928 40.4193 -40.0000
-89.8928 40.4193 -41.0000
-87.3245 39.2645 -42.0000
-82.1877 36.9548 -43.0000
-77.0510 34.6451 -44.0000
-71.9143 32.3354 -45.0000
-64.2092 28.8709 -46.0000
-61.6408 27.7161 -47.0000
-61.6408 27.7161 -48.0000
-61.6408 27.7161 -49.0000
-61.6408 27.7161 -50.0000
-61.6408 27.7161 -51.0000
-61.6408 27.7161 -52.0000
-61.6408 27.7161 -53.0000
-61.6408 27.7161 -54.0000
-61.6408 27.7161 -55.0000
-61.6408 27.7161 -56.0000
-61.6408 27.7161 -57.0000
-61.6408 27.7161 -58.0000
-61.6408 27.7161 -59.0000
-61.6408 27.7161 -60.0000
-61.6408 27.7161 -61.0000
-61.6408 27.7161 -62.0000
-61.6408 27.7161 -63.0000
-61.6408 27.7161 -64.0000
-61.6408 27.7161 -65.0000
-61.6408 27.7161 -66.0000
-61.6408 27.7161 -67.0000
-61.6408 27.7161 -68.0000
-61.6408 27.7161 -69.0000
-61.6408 27.7161 -70.0000
-61.6408 27.7161 -71.0000
-61.6408 27.7161 -72.0000
-61.6408 27.7161 -73.0000
-61.6408 27.7161 -74.0000
-61.6408 27.7161 -75.0000
-61.6408 27.7161 -76.0000
-61.6408 27.7161 -77.0000
-61.6408 27.7161 -78.0000
-61.6408 27.7161 -79.0000
-61.6408 27.7161 -80.0000
-61.6408 27.7161 -81.0000
-61.6408 27.7161 -82.0000
-61.6408 27.7161 -83.0000
-61.6408 27.7161 -84.0000
-61.6408 27.7161 -85.0000
-61.6408 27.7161 -86.0000
-61.6408 27.7161 -87.0000
-61.6408 27.7161 -88.0000
-64.2092 28.8709 -89.0000
-64.2092 28.8709 -90.0000
-71.9143 32.3354 -91.0000
-77.0510 34.6451 -92.0000
-79.6194 35.8000 -93.0000
-84.7561 38.1096 -94.0000
-89.8928 40.4193 -95.0000
-89.8928 40.4193 -96.0000
-89.8928 40.4193 -97.0000
-89.8928 40.4193 -98.0000
-89.8928 40.4193 -99.0000
-87.3245 39.2645 -100.0000
-87.3245 39.2645 -101.0000
-87.3245 39.2645 -102.0000
-88.7079 36.0300 -35.0000
-88.7079 36.0300 -36.0000
-91.3170 37.0897 -37.0000
-91.3170 37.0897 -38.0000
-91.3170 37.0897 -39.0000
-91.3170 37.0897 -40.0000
-91.3170 37.0897 -41.0000
-91.3170 37.0897 -42.0000
-88.7079 36.0300 -43.0000
-80.8807 32.8509 -44.0000
-73.0536 29.6718 -45.0000
-65.2264 26.4927 -46.0000
-62.6174 25.4330 -47.0000
-62.6174 25.4330 -48.0000
-62.6174 25.4330 -49.0000
-62.6174 25.4330 -50.0000
-62.6174 25.4330 -51.0000
-62.6174 25.4330 -52.0000
-62.6174 25.4330 -53.0000
-62.6174 25.4330 -54.0000
-62.6174 25.4330 -55.0000
-62.6174 25.4330 -56.0000
-62.6174 25.4330 -57.0000
-62.6174 25.4330 -58.0000
-62.6174 25.4330 -59.0000
-62.6174 25.4330 -60.0000
-62.6174 25.4330 -61.0000
-62.6174 25.4330 -62.0000
-62.6174 25.4330 -63.0000
-62.6174 25.4330 -64.0000
-62.6174 25.4330 -65.0000
-62.6174 25.4330 -66.0000
-62.6174 25.4330 -67.0000
-62.6174 25.4330 -68.0000
-62.6174 25.4330 -69.0000
-62.6174 25.4330 -70.0000
-62.6174 25.4330 -71.0000
-62.6174 25.4330 -72.0000
-62.6174 25.4330 -73.0000
-62.6174 25.4330 -74.0000
-62.6174 25.4330 -75.0000
-62.6174 25.4330 -76.0000
-62.6174 25.4330 -77.0000
-62.6174 25.4330 -78.0000
-62.6174 25.4330 -79.0000
-62.6174 25.4330 -80.0000
-62.6174 25.4330 -81.0000
-62.6174 25.4330 -82.0000
-62.6174 25.4330 -83.0000
-62.6174 25.4330 -84.0000
-62.6174 25.4330 -85.0000
-62.6174 25.4330 -86.0000
-62.6174 25.4330 -87.0000
-65.2264 26.4927 -88.0000
-65.2264 26.4927 -89.0000
-65.2264 26.4927 -90.0000
-73.0536 29.6718 -91.0000
-80.8807 32.8509 -92.0000
-80.8807 32.8509 -93.0000
-83.4898 33.9106 -94.0000
-88.7079 36.0300 -95.0000
-91.3170 37.0897 -96.0000
-91.3170 37.0897 -97.0000
-91.3170 37.0897 -98.0000
-91.3170 37.0897 -99.0000
-91.3170 37.0897 -100.0000
-88.7079 36.0300 -101.0000
-88.7079 36.0300 -102.0000
-89.9716 32.7470 -35.0000
-89.9716 32.7470 -36.0000
-92.6178 33.7101 -37.0000
-92.6178 33.7101 -38.0000
-92.6178 33.7101 -39.0000
-92.6178 33.7101 -40.0000
-92.6178 33.7101 -41.0000
-92.6178 33.7101 -42.0000
-89.9716 32.7470 -43.0000
-82.0329 29.8576 -44.0000
-74.0943 26.9681 -45.0000
-68.8018 25.0418 -46.0000
-63.5094 23.1155 -47.0000
-63.5094 23.1155 -48.0000
-63.5094 23.1155 -49.0000
-63.5094 23.1155 -50.0000
-63.5094 23.1155 -51.0000
-63.5094 23.1155 -52.0000
-63.5094 23.1155 -53.0000
-63.5094 23.1155 -54.0000
-63.5094 23.1155 -55.0000
-63.5094 23.1155 -56.0000
-63.5094 23.1155 -57.0000
-63.5094 23.1155 -58.0000
-63.5094 23.1155 -59.0000
-63.5094 23.1155 -60.0000
-63.5094 23.1155 -61.0000
-63.5094 23.1155 -62.0000
-63.5094 23.1155 -63.0000
-63.5094 23.1155 -64.0000
-63.5094 23.1155 -65.0000
-63.5094 23.1155 -66.0000
-63.5094 23.1155 -67.0000
-63.5094 23.1155 -68.0000
-63.5094 23.1155 -69.0000
-63.5094 23.1155 -70.0000
-63.5094 23.1155 -71.0000
-63.5094 23.1155 -72.0000
-63.5094 23.1155 -73.0000
-63.5094 23.1155 -74.0000
-63.5094 23.1155 -75.0000
-63.5094 23.1155 -76.0000
-63.5094 23.1155 -77.0000
-63.5094 23.1155 -78.0000
-63.5094 23.1155 -79.0000
-63.5094 23.1155 -80.0000
-63.5094 23.1155 -81.0000
-63.5094 23.1155 -82.0000
-63.5094 23.1155 -83.0000
-63.5094 23.1155 -84.0000
-63.5094 23.1155 -85.0000
-63.5094 23.1155 -86.0000
-63.5094 23.1155 -87.0000
-66.1556 24.0787 -88.0000
-66.1556 24.0787 -89.0000
-66.1556 24.0787 -90.0000
-74.0943 26.9681 -91.0000
-82.0329 29.8576 -92.0000
-82.0329 29.8576 -93.0000
-84.6792 30.8207 -94.0000
-92.6178 33.7101 -95.0000
-92.6178 33.7101 -96.0000
-92.6178 33.7101 -97.0000
-92.6178 33.7101 -98.0000
-92.6178 33.7101 -99.0000
-92.6178 33.7101 -100.0000
-89.9716 32.7470 -101.0000
-92.6178 33.7101 -102.0000
-91.1139 29.4197 -35.0000
-93.7937 30.2850 -36.0000
-93.7937 30.2850 -37.0000
-93.7937 30.2850 -38.0000
-93.7937 30.2850 -39.0000
-93.7937 30.2850 -40.0000
-93.7937 30.2850 -41.0000
-93.7937 30.2850 -42.0000
-91.1139 29.4197 -43.0000
-83.0744 26.8239 -44.0000
-75.0350 24.2280 -45.0000
-69.6753 22.4974 -46.0000
-66.9955 21.6322 -47.0000
-64.3157 20.7669 -48.0000
-64.3157 20.7669 -49.0000
-64.3157 20.7669 -50.0000
-64.3157 20.7669 -51.0000
-64.3157 20.7669 -52.0000
-64.3157 20.7669 -53.0000
-64.3157 20.7669 -54.0000
-64.3157 20.7669 -55.0000
-64.3157 20.7669 -56.0000
-64.3157 20.7669 -57.0000
-64.3157 20.7669 -58.0000
-64.3157 20.7669 -59.0000
-64.3157 20.7669 -60.0000
-64.3157 20.7669 -61.0000
-64.3157 20.7669 -62.0000
-64.3157 20.7669 -63.0000
-64.3157 20.7669 -64.0000
-64.3157 20.7669 -65.0000
-64.3157 20.7669 -66.0000
-64.3157 20.7669 -67.0000
-64.3157 20.7669 -68.0000
-64.3157 20.7669 -69.0000
-64.3157 20.7669 -70.0000
-64.3157 20.7669 -71.0000
-64.3157 20.7669 -72.0000
-64.3157 20.7669 -73.0000
-64.3157 20.7669 -74.0000
-64.3157 20.7669 -75.0000
-64.3157 20.7669 -76.0000
-66.9955 21.6322 -77.0000
-66.9955 21.6322 -78.0000
-64.3157 20.7669 -79.0000
-64.3157 20.7669 -80.0000
-64.3157 20.7669 -81.0000
-64.3157 20.7669 -82.0000
-64.3157 20.7669 -83.0000
-64.3157 20.7669 -84.0000
-64.3157 20.7669 -85.0000
-64.3157 20.7669 -86.0000
-66.9955 21.6322 -87.0000
-66.9955 21.6322 -88.0000
-66.9955 21.6322 -89.0000
-66.9955 21.6322 -90.0000
-75.0350 24.2280 -91.0000
-83.0744 26.8239 -92.0000
-83.0744 26.8239 -93.0000
-85.7542 27.6892 -94.0000
-93.7937 30.2850 -95.0000
-93.7937 30.2850 -96.0000
-93.7937 30.2850 -97.0000
-93.7937 30.2850 -98.0000
-93.7937 30.2850 -99.0000
-93.7937 30.2850 -100.0000
-91.1139 29.4197 -101.0000
-93.7937 30.2850 -102.0000
-92.1331 26.0528 -35.0000
-94.8429 26.8190 -36.0000
-94.8429 26.8190 -37.0000
-94.8429 26.8190 -38.0000
-94.8429 26.8190 -39.0000
-94.8429 26.8190 -40.0000
-94.8429 26.8190 -41.0000
-94.8429 26.8190 -42.0000
-92.1331 26.0528 -43.0000
-84.0037 23.7540 -44.0000
-78.5841 22.2215 -45.0000
-70.4547 19.9227 -46.0000
-67.7449 19.1565 -47.0000
-65.0351 18.3902 -48.0000
-65.0351 18.3902 -49.0000
-65.0351 18.3902 -50.0000
-65.0351 18.3902 -51.0000
-65.0351 18.3902 -52.0000
-65.0351 18.3902 -53.0000
-65.0351 18.3902 -54.0000
-65.0351 18.3902 -55.0000
-67.7449 19.1565 -56.0000
-67.7449 19.1565 -57.0000
-67.7449 19.1565 -58.0000
-65.0351 18.3902 -59.0000
-67.7449 19.1565 -60.0000
-67.7449 19.1565 -61.0000
-67.7449 19.1565 -62.0000
-67.7449 19.1565 -63.0000
-67.7449 19.1565 -64.0000
-67.7449 19.1565 -65.0000
-67.7449 19.1565 -66.0000
-67.7449 19.1565 -67.0000
-67.7449 19.1565 -68.0000
-67.7449 19.1565 -69.0000
-67.7449 19.1565 -70.0000
-67.7449 19.1565 -71.0000
-67.7449 19.1565 -72.0000
-67.7449 19.1565 -73.0000
-67.7449 19.1565 -74.0000
-67.7449 19.1565 -75.0000
-67.7449 19.1565 -76.0000
-67.7449 19.1565 -77.0000
-67.7449 19.1565 -78.0000
-67.7449 19.1565 -79.0000
-67.7449 19.1565 -80.0000
-67.7449 19.1565 -81.0000
-67.7449 19.1565 -82.0000
-67.7449 19.1565 -83.0000
-67.7449 19.1565 -84.0000
-67.7449 19.1565 -85.0000
-67.7449 19.1565 -86.0000
-67.7449 19.1565 -87.0000
-67.7449 19.1565 -88.0000
-67.7449 19.1565 -89.0000
-67.7449 19.1565 -90.0000
-75.8743 21.4552 -91.0000
-84.0037 23.7540 -92.0000
-84.0037 23.7540 -93.0000
-86.7135 24.5203 -94.0000
-94.8429 26.8190 -95.0000
-94.8429 26.8190 -96.0000
-94.8429 26.8190 -97.0000
-94.8429 26.8190 -98.0000
-94.8429 26.8190 -99.0000
-94.8429 26.8190 -100.0000
-92.1331 26.0528 -101.0000
-94.8429 26.8190 -102.0000
-95.7641 23.3168 -35.0000
-95.7641 23.3168 -36.0000
-95.7641 23.3168 -37.0000
-95.7641 23.3168 -38.0000
-95.7641 23.3168 -39.0000
-95.7641 23.3168 -40.0000
-95.7641 23.3168 -41.0000
-95.7641 23.3168 -42.0000
-93.0280 22.6506 -43.0000
-87.5558 21.3182 -44.0000
-79.3474 19.3197 -45.0000
-73.8752 17.9873 -46.0000
-68.4029 16.6549 -47.0000
-68.4029 16.6549 -48.0000
-68.4029 16.6549 -49.0000
-68.4029 16.6549 -50.0000
-68.4029 16.6549 -51.0000
-68.4029 16.6549 -52.0000
-68.4029 16.6549 -53.0000
-68.4029 16.6549 -54.0000
-68.4029 16.6549 -55.0000
-68.4029 16.6549 -56.0000
-68.4029 16.6549 -57.0000
-68.4029 16.6549 -58.0000
-68.4029 16.6549 -59.0000
-68.4029 16.6549 -60.0000
-68.4029 16.6549 -61.0000
-68.4029 16.6549 -62.0000
-68.4029 16.6549 -63.0000
-68.4029 16.6549 -64.0000
-68.4029 16.6549 -65.0000
-68.4029 16.6549 -66.0000
-68.4029 16.6549 -67.0000
-68.4029 16.6549 -68.0000
-68.4029 16.6549 -69.0000
-68.4029 16.6549 -70.0000
-68.4029 16.6549 -71.0000
-68.4029 16.6549 -72.0000
-68.4029 16.6549 -73.0000
-68.4029 16.6549 -74.0000
-68.4029 16.6549 -75.0000
-68.4029 16.6549 -76.0000
-68.4029 16.6549 -77.0000
-68.4029 16.6549 -78.0000
-68.4029 16.6549 -79.0000
-68.4029 16.6549 -80.0000
-68.4029 16.6549 -81.0000
-68.4029 16.6549 -82.0000
-68.4029 16.6549 -83.0000
-68.4029 16.6549 -84.0000
-71.1391 17.3211 -85.0000
-68.4029 16.6549 -86.0000
-68.4029 16.6549 -87.0000
-68.4029 16.6549 -88.0000
-68.4029 16.6549 -89.0000
-68.4029 16.6549 -90.0000
-76.6113 18.6535 -91.0000
-84.8196 20.6520 -92.0000
-84.8196 20.6520 -93.0000
-87.5558 21.3182 -94.0000
-95.7641 23.3168 -95.0000
-95.7641 23.3168 -96.0000
-98.5002 23.9830 -97.0000
-95.7641 23.3168 -98.0000
-95.7641 23.3168 -99.0000
-95.7641 23.3168 -100.0000
-95.7641 23.3168 -101.0000
-95.7641 23.3168 -102.0000
-98.5002 23.9830 -104.0000
-96.5560 19.7831 -35.0000
-96.5560 19.7831 -36.0000
-96.5560 19.7831 -37.0000
-96.5560 19.7831 -38.0000
-96.5560 19.7831 -39.0000
-96.5560 19.7831 -40.0000
-96.5560 19.7831 -41.0000
-96.5560 19.7831 -42.0000
-93.7973 19.2179 -43.0000
-88.2798 18.0874 -44.0000
-82.7623 16.9570 -45.0000
-77.2448 15.8265 -46.0000
-68.9686 14.1308 -47.0000
-68.9686 14.1308 -48.0000
-68.9686 14.1308 -49.0000
-68.9686 14.1308 -50.0000
-68.9686 14.1308 -51.0000
-68.9686 14.1308 -52.0000
-68.9686 14.1308 -53.0000
-68.9686 14.1308 -54.0000
-68.9686 14.1308 -55.0000
-68.9686 14.1308 -56.0000
-68.9686 14.1308 -57.0000
-68.9686 14.1308 -58.0000
-68.9686 14.1308 -59.0000
-68.9686 14.1308 -60.0000
-68.9686 14.1308 -61.0000
-68.9686 14.1308 -62.0000
-68.9686 14.1308 -63.0000
-68.9686 14.1308 -64.0000
-68.9686 14.1308 -65.0000
-68.9686 14.1308 -66.0000
-68.9686 14.1308 -67.0000
-68.9686 14.1308 -68.0000
-68.9686 14.1308 -69.0000
-68.9686 14.1308 -70.0000
-68.9686 14.1308 -71.0000
-68.9686 14.1308 -72.0000
-68.9686 14.1308 -73.0000
-68.9686 14.1308 -74.0000
-68.9686 14.1308 -75.0000
-68.9686 14.1308 -76.0000
-68.9686 14.1308 -77.0000
-68.9686 14.1308 -78.0000
-68.9686 14.1308 -79.0000
-68.9686 14.1308 -80.0000
-68.9686 14.1308 -81.0000
-68.9686 14.1308 -82.0000
-68.9686 14.1308 -83.0000
-71.7273 14.6960 -84.0000
-71.7273 14.6960 -85.0000
-71.7273 14.6960 -86.0000
-68.9686 14.1308 -87.0000
-68.9686 14.1308 -88.0000
-68.9686 14.1308 -89.0000
-68.9686 14.1308 -90.0000
-74.4861 15.2613 -91.0000
-85.5211 17.5222 -92.0000
-85.5211 17.5222 -93.0000
-88.2798 18.0874 -94.0000
-96.5560 19.7831 -95.0000
-99.3148 20.3484 -96.0000
-102.0735 20.9136 -97.0000
-102.0735 20.9136 -98.0000
-99.3148 20.3484 -99.0000
-99.3148 20.3484 -100.0000
-99.3148 20.3484 -101.0000
-96.5560 19.7831 -102.0000
-99.3148 20.3484 -103.0000
-99.3148 20.3484 -104.0000
-97.2176 16.2228 -35.0000
-97.2176 16.2228 -36.0000
-97.2176 16.2228 -37.0000
-97.2176 16.2228 -38.0000
-97.2176 16.2228 -39.0000
-97.2176 16.2228 -40.0000
-97.2176 16.2228 -41.0000
-97.2176 16.2228 -42.0000
-97.2176 16.2228 -43.0000
-88.8847 14.8322 -44.0000
-83.3294 13.9052 -45.0000
-77.7741 12.9782 -46.0000
-69.4411 11.5877 -47.0000
-69.4411 11.5877 -48.0000
-69.4411 11.5877 -49.0000
-69.4411 11.5877 -50.0000
-69.4411 11.5877 -51.0000
-69.4411 11.5877 -52.0000
-69.4411 11.5877 -53.0000
-69.4411 11.5877 -54.0000
-69.4411 11.5877 -55.0000
-69.4411 11.5877 -56.0000
-69.4411 11.5877 -57.0000
-69.4411 11.5877 -58.0000
-69.4411 11.5877 -59.0000
-69.4411 11.5877 -60.0000
-69.4411 11.5877 -61.0000
-69.4411 11.5877 -62.0000
-69.4411 11.5877 -63.0000
-69.4411 11.5877 -64.0000
-69.4411 11.5877 -65.0000
-69.4411 11.5877 -66.0000
-69.4411 11.5877 -67.0000
-69.4411 11.5877 -68.0000
-69.4411 11.5877 -69.0000
-69.4411 11.5877 -70.0000
-69.4411 11.5877 -71.0000
-69.4411 11.5877 -72.0000
-69.4411 11.5877 -73.0000
-69.4411 11.5877 -74.0000
-69.4411 11.5877 -75.0000
-69.4411 11.5877 -76.0000
-69.4411 11.5877 -77.0000
-69.4411 11.5877 -78.0000
-69.4411 11.5877 -79.0000
-69.4411 11.5877 -80.0000
-69.4411 11.5877 -81.0000
-69.4411 11.5877 -82.0000
-72.2188 12.0512 -83.0000
-72.2188 12.0512 -84.0000
-72.2188 12.0512 -85.0000
-72.2188 12.0512 -86.0000
-72.2188 12.0512 -87.0000
-69.4411 11.5877 -88.0000
-69.4411 11.5877 -89.0000
-69.4411 11.5877 -90.0000
-74.9964 12.5147 -91.0000
-86.1070 14.3687 -92.0000
-88.8847 14.8322 -93.0000
-91.6623 15.2957 -94.0000
-99.9953 16.6863 -95.0000
-99.9953 16.6863 -96.0000
-102.7729 17.1498 -97.0000
-102.7729 17.1498 -98.0000
-99.9953 16.6863 -99.0000
-99.9953 16.6863 -100.0000
-99.9953 16.6863 -101.0000
-97.2176 16.2228 -102.0000
-99.9953 16.6863 -103.0000
-99.9953 16.6863 -104.0000
-97.7479 12.6405 -35.0000
-97.7479 12.6405 -36.0000
-97.7479 12.6405 -37.0000
-97.7479 12.6405 -38.0000
-97.7479 12.6405 -39.0000
-97.7479 12.6405 -40.0000
-97.7479 12.6405 -41.0000
-97.7479 12.6405 -42.0000
-94.9551 12.2793 -43.0000
-89.3695 11.5570 -44.0000
-83.7839 10.8347 -45.0000
-78.1983 10.1124 -46.0000
-72.6128 9.3901 -47.0000
-69.8200 9.0289 -48.0000
-69.8200 9.0289 -49.0000
-69.8200 9.0289 -50.0000
-69.8200 9.0289 -51.0000
-69.8200 9.0289 -52.0000
-69.8200 9.0289 -53.0000
-69.8200 9.0289 -54.0000
-69.8200 9.0289 -55.0000
-69.8200 9.0289 -56.0000
-69.8200 9.0289 -57.0000
-69.8200 9.0289 -58.0000
-69.8200 9.0289 -59.0000
-69.8200 9.0289 -60.0000
-69.8200 9.0289 -61.0000
-69.8200 9.0289 -62.0000
-69.8200 9.0289 -63.0000
-69.8200 9.0289 -64.0000
-69.8200 9.0289 -65.0000
-69.8200 9.0289 -66.0000
-69.8200 9.0289 -67.0000
-69.8200 9.0289 -68.0000
-69.8200 9.0289 -69.0000
-69.8200 9.0289 -70.0000
-69.8200 9.0289 -71.0000
-69.8200 9.0289 -72.0000
-69.8200 9.0289 -73.0000
-69.8200 9.0289 -74.0000
-69.8200 9.0289 -75.0000
-69.8200 9.0289 -76.0000
-69.8200 9.0289 -77.0000
-69.8200 9.0289 -78.0000
-69.8200 9.0289 -79.0000
-69.8200 9.0289 -80.0000
-72.6128 9.3901 -81.0000
-72.6128 9.3901 -82.0000
-72.6128 9.3901 -83.0000
-72.6128 9.3901 -84.0000
-72.6128 9.3901 -85.0000
-72.6128 9.3901 -86.0000
-72.6128 9.3901 -87.0000
-72.6128 9.3901 -88.0000
-72.6128 9.3901 -89.0000
-72.6128 9.3901 -90.0000
-75.4056 9.7512 -91.0000
-86.5767 11.1958 -92.0000
-89.3695 11.5570 -93.0000
-92.1623 11.9181 -94.0000
-100.5407 13.0016 -95.0000
-100.5407 13.0016 -96.0000
-103.3335 13.3628 -97.0000
-103.3335 13.3628 -98.0000
-103.3335 13.3628 -99.0000
-100.5407 13.0016 -100.0000
-100.5407 13.0016 -101.0000
-97.7479 12.6405 -102.0000
-100.5407 13.0016 -103.0000
-100.5407 13.0016 -104.0000
-98.1463 9.0411 -35.0000
-98.1463 9.0411 -36.0000
-98.1463 9.0411 -37.0000
-98.1463 9.0411 -38.0000
-98.1463 9.0411 -39.0000
-98.1463 9.0411 -40.0000
-98.1463 9.0411 -41.0000
-98.1463 9.0411 -42.0000
-98.1463 9.0411 -43.0000
-89.7338 8.2662 -44.0000
-84.1254 7.7495 -45.0000
-78.5170 7.2329 -46.0000
-72.9087 6.7163 -47.0000
-72.9087 6.7163 -48.0000
-70.1045 6.4579 -49.0000
-70.1045 6.4579 -50.0000
-70.1045 6.4579 -51.0000
-70.1045 6.4579 -52.0000
-70.1045 6.4579 -53.0000
-70.1045 6.4579 -54.0000
-70.1045 6.4579 -55.0000
-70.1045 6.4579 -56.0000
-70.1045 6.4579 -57.0000
-70.1045 6.4579 -58.0000
-70.1045 6.4579 -59.0000
-70.1045 6.4579 -60.0000
-70.1045 6.4579 -61.0000
-70.1045 6.4579 -62.0000
-70.1045 6.4579 -63.0000
-70.1045 6.4579 -64.0000
-70.1045 6.4579 -65.0000
-70.1045 6.4579 -66.0000
-70.1045 6.4579 -67.0000
-70.1045 6.4579 -68.0000
-70.1045 6.4579 -69.0000
-70.1045 6.4579 -70.0000
-70.1045 6.4579 -71.0000
-70.1045 6.4579 -72.0000
-70.1045 6.4579 -73.0000
-70.1045 6.4579 -74.0000
-70.1045 6.4579 -75.0000
-70.1045 6.4579 -76.0000
-70.1045 6.4579 -77.0000
-70.1045 6.4579 -78.0000
-70.1045 6.4579 -79.0000
-72.9087 6.7163 -80.0000
-72.9087 6.7163 -81.0000
-72.9087 6.7163 -82.0000
-72.9087 6.7163 -83.0000
-72.9087 6.7163 -84.0000
-72.9087 6.7163 -85.0000
-72.9087 6.7163 -86.0000
-72.9087 6.7163 -87.0000
-72.9087 6.7163 -88.0000
-72.9087 6.7163 -89.0000
-72.9087 6.7163 -90.0000
-75.7129 6.9746 -91.0000
-86.9296 8.0078 -92.0000
-89.7338 8.2662 -93.0000
-92.5379 8.5245 -94.0000
-100.9505 9.2994 -95.0000
-100.9505 9.2994 -96.0000
-103.7547 9.5577 -97.0000
-103.7547 9.5577 -98.0000
-103.7547 9.5577 -99.0000
-100.9505 9.2994 -100.0000
-100.9505 9.2994 -101.0000
-98.1463 9.0411 -102.0000
-100.9505 9.2994 -103.0000
-101.2240 5.5847 -35.0000
-98.4122 5.4295 -36.0000
-98.4122 5.4295 -37.0000
-98.4122 5.4295 -38.0000
-98.4122 5.4295 -39.0000
-98.4122 5.4295 -40.0000
-98.4122 5.4295 -41.0000
-98.4122 5.4295 -42.0000
-98.4122 5.4295 -43.0000
-89.9769 4.9642 -44.0000
-84.3533 4.6539 -45.0000
-78.7297 4.3436 -46.0000
-73.1062 4.0334 -47.0000
-73.1062 4.0334 -48.0000
-70.2944 3.8782 -49.0000
-70.2944 3.8782 -50.0000
-70.2944 3.8782 -51.0000
-70.2944 3.8782 -52.0000
-70.2944 3.8782 -53.0000
-70.2944 3.8782 -54.0000
-70.2944 3.8782 -55.0000
-70.2944 3.8782 -56.0000
-70.2944 3.8782 -57.0000
-70.2944 3.8782 -58.0000
-70.2944 3.8782 -59.0000
-70.2944 3.8782 -60.0000
-70.2944 3.8782 -61.0000
-70.2944 3.8782 -62.0000
-70.2944 3.8782 -63.0000
-70.2944 3.8782 -64.0000
-70.2944 3.8782 -65.0000
-70.2944 3.8782 -66.0000
-70.2944 3.8782 -67.0000
-70.2944 3.8782 -68.0000
-70.2944 3.8782 -69.0000
-70.2944 3.8782 -70.0000
-70.2944 3.8782 -71.0000
-70.2944 3.8782 -72.0000
-70.2944 3.8782 -73.0000
-70.2944 3.8782 -74.0000
-70.2944 3.8782 -75.0000
-70.2944 3.8782 -76.0000
-70.2944 3.8782 -77.0000
-70.2944 3.8782 -78.0000
-70.2944 3.8782 -79.0000
-73.1062 4.0334 -80.0000
-73.1062 4.0334 -81.0000
-73.1062 4.0334 -82.0000
-73.1062 4.0334 -83.0000
-73.1062 4.0334 -84.0000
-73.1062 4.0334 -85.0000
-73.1062 4.0334 -86.0000
-73.1062 4.0334 -87.0000
-73.1062 4.0334 -88.0000
-73.1062 4.0334 -89.0000
-73.1062 4.0334 -90.0000
-75.9180 4.1885 -91.0000
-87.1651 4.8090 -92.0000
-89.9769 4.9642 -93.0000
-92.7886 5.1193 -94.0000
-101.2240 5.5847 -95.0000
-101.2240 5.5847 -96.0000
-104.0357 5.7398 -97.0000
-104.0357 5.7398 -98.0000
-104.0357 5.7398 -99.0000
-101.2240 5.5847 -100.0000
-101.2240 5.5847 -101.0000
-98.4122 5.4295 -102.0000
-101.2240 5.5847 -103.0000
-101.3608 1.8624 -35.0000
-101.3608 1.8624 -36.0000
-98.5452 1.8107 -37.0000
-98.5452 1.8107 -38.0000
-101.3608 1.8624 -39.0000
-101.3608 1.8624 -40.0000
-101.3608 1.8624 -41.0000
-101.3608 1.8624 -42.0000
-98.5452 1.8107 -43.0000
-90.0985 1.6555 -44.0000
-84.4673 1.5520 -45.0000
-78.8362 1.4485 -46.0000
-76.0206 1.3968 -47.0000
-73.2050 1.3451 -48.0000
-70.3894 1.2933 -49.0000
-70.3894 1.2933 -50.0000
-70.3894 1.2933 -51.0000
-70.3894 1.2933 -52.0000
-70.3894 1.2933 -53.0000
-70.3894 1.2933 -54.0000
-70.3894 1.2933 -55.0000
-70.3894 1.2933 -56.0000
-70.3894 1.2933 -57.0000
-70.3894 1.2933 -58.0000
-70.3894 1.2933 -59.0000
-70.3894 1.2933 -60.0000
-70.3894 1.2933 -61.0000
-70.3894 1.2933 -62.0000
-70.3894 1.2933 -63.0000
-70.3894 1.2933 -64.0000
-70.3894 1.2933 -65.0000
-70.3894 1.2933 -66.0000
-70.3894 1.2933 -67.0000
-70.3894 1.2933 -68.0000
-70.3894 1.2933 -69.0000
-70.3894 1.2933 -70.0000
-70.3894 1.2933 -71.0000
-70.3894 1.2933 -72.0000
-70.3894 1.2933 -73.0000
-70.3894 1.2933 -74.0000
-70.3894 1.2933 -75.0000
-70.3894 1.2933 -76.0000
-70.3894 1.2933 -77.0000
-73.2050 1.3451 -78.0000
-73.2050 1.3451 -79.0000
-73.2050 1.3451 -80.0000
-73.2050 1.3451 -81.0000
-73.2050 1.3451 -82.0000
-73.2050 1.3451 -83.0000
-73.2050 1.3451 -84.0000
-73.2050 1.3451 -85.0000
-73.2050 1.3451 -86.0000
-73.2050 1.3451 -87.0000
-73.2050 1.3451 -88.0000
-73.2050 1.3451 -89.0000
-73.2050 1.3451 -90.0000
-76.0206 1.3968 -91.0000
-87.2829 1.6037 -92.0000
-90.0985 1.6555 -93.0000
-92.9141 1.7072 -94.0000
-101.3608 1.8624 -95.0000
-101.3608 1.8624 -96.0000
-104.1764 1.9141 -97.0000
-104.1764 1.9141 -98.0000
-104.1764 1.9141 -99.0000
-104.1764 1.9141 -100.0000
-101.3608 1.8624 -101.0000
-101.3608 1.8624 -102.0000
-101.3608 -1.8624 -35.0000
-101.3608 -1.8624 -36.0000
-98.5452 -1.8107 -37.0000
-101.3608 -1.8624 -38.0000
-101.3608 -1.8624 -39.0000
-101.3608 -1.8624 -40.0000
-101.3608 -1.8624 -41.0000
-101.3608 -1.8624 -42.0000
-98.5452 -1.8107 -43.0000
-92.9141 -1.7072 -44.0000
-84.4673 -1.5520 -45.0000
-78.8362 -1.4485 -46.0000
-76.0206 -1.3968 -47.0000
-73.2050 -1.3451 -48.0000
-73.2050 -1.3451 -49.0000
-73.2050 -1.3451 -50.0000
-70.3894 -1.2933 -51.0000
-70.3894 -1.2933 -52.0000
-70.3894 -1.2933 -53.0000
-70.3894 -1.2933 -54.0000
-70.3894 -1.2933 -55.0000
-70.3894 -1.2933 -56.0000
-70.3894 -1.2933 -57.0000
-70.3894 -1.2933 -58.0000
-70.3894 -1.2933 -59.0000
-70.3894 -1.2933 -60.0000
-70.3894 -1.2933 -61.0000
-70.3894 -1.2933 -62.0000
-70.3894 -1.2933 -63.0000
-70.3894 -1.2933 -64.0000
-70.3894 -1.2933 -65.0000
-70.3894 -1.2933 -66.0000
-70.3894 -1.2933 -67.0000
-70.3894 -1.2933 -68.0000
-70.3894 -1.2933 -69.0000
-70.3894 -1.2933 -70.0000
-70.3894 -1.2933 -71.0000
-70.3894 -1.2933 -72.0000
-70.3894 -1.2933 -73.0000
-70.3894 -1.2933 -74.0000
-70.3894 -1.2933 -75.0000
-70.3894 -1.2933 -76.0000
-73.2050 -1.3451 -77.0000
-73.2050 -1.3451 -78.0000
-73.2050 -1.3451 -79.0000
-73.2050 -1.3451 -80.0000
-73.2050 -1.3451 -81.0000
-73.2050 -1.3451 -82.0000
-73.2050 -1.3451 -83.0000
-73.2050 -1.3451 -84.0000
-73.2050 -1.3451 -85.0000
-73.2050 -1.3451 -86.0000
-73.2050 -1.3451 -87.0000
-73.2050 -1.3451 -88.0000
-73.2050 -1.3451 -89.0000
-73.2050 -1.3451 -90.0000
-76.0206 -1.3968 -91.0000
-87.2829 -1.6037 -92.0000
-90.0985 -1.6555 -93.0000
-92.9141 -1.7072 -94.0000
-101.3608 -1.8624 -95.0000
-101.3608 -1.8624 -96.0000
-104.1764 -1.9141 -97.0000
-104.1764 -1.9141 -98.0000
-104.1764 -1.9141 -99.0000
-104.1764 -1.9141 -100.0000
-101.3608 -1.8624 -101.0000
-101.3608 -1.8624 -102.0000
-101.2240 -5.5847 -35.0000
-101.2240 -5.5847 -36.0000
-98.4122 -5.4295 -37.0000
-101.2240 -5.5847 -38.0000
-104.0357 -5.7398 -39.0000
-104.0357 -5.7398 -40.0000
-104.0357 -5.7398 -41.0000
-104.0357 -5.7398 -42.0000
-98.4122 -5.4295 -43.0000
-92.7886 -5.1193 -44.0000
-84.3533 -4.6539 -45.0000
-78.7297 -4.3436 -46.0000
-75.9180 -4.1885 -47.0000
-73.1062 -4.0334 -48.0000
-73.1062 -4.0334 -49.0000
-73.1062 -4.0334 -50.0000
-73.1062 -4.0334 -51.0000
-70.2944 -3.8782 -52.0000
-70.2944 -3.8782 -53.0000
-70.2944 -3.8782 -54.0000
-70.2944 -3.8782 -55.0000
-70.2944 -3.8782 -56.0000
-70.2944 -3.8782 -57.0000
-70.2944 -3.8782 -58.0000
-70.2944 -3.8782 -59.0000
-70.2944 -3.8782 -60.0000
-70.2944 -3.8782 -61.0000
-70.2944 -3.8782 -62.0000
-70.2944 -3.8782 -63.0000
-70.2944 -3.8782 -64.0000
-70.2944 -3.8782 -65.0000
-70.2944 -3.8782 -66.0000
-70.2944 -3.8782 -67.0000
-70.2944 -3.8782 -68.0000
-70.2944 -3.8782 -69.0000
-70.2944 -3.8782 -70.0000
-70.2944 -3.8782 -71.0000
-70.2944 -3.8782 -72.0000
-70.2944 -3.8782 -73.0000
-70.2944 -3.8782 -74.0000
-73.1062 -4.0334 -75.0000
-73.1062 -4.0334 -76.0000
-73.1062 -4.0334 -77.0000
-73.1062 -4.0334 -78.0000
-73.1062 -4.0334 -79.0000
-73.1062 -4.0334 -80.0000
-73.1062 -4.0334 -81.0000
-73.1062 -4.0334 -82.0000
