184.2942 77.5341 -102.0000
184.2942 77.5341 -103.0000
184.2942 77.5341 -104.0000
184.2942 77.5341 -105.0000
184.2942 77.5341 -106.0000
184.2942 77.5341 -107.0000
184.2942 77.5341 -108.0000
181.6985 76.4421 -109.0000
184.2942 77.5341 -110.0000
175.5946 83.1987 -77.0000
175.5946 83.1987 -78.0000
175.5946 83.1987 -79.0000
63.6212 30.1444 -80.0000
175.5946 83.1987 -81.0000
175.5946 83.1987 -82.0000
190.8636 90.4333 -83.0000
221.4018 104.9026 -84.0000
198.4982 94.0507 -85.0000
180.6843 85.6102 -102.0000
180.6843 85.6102 -103.0000
180.6843 85.6102 -104.0000
180.6843 85.6102 -105.0000
180.6843 85.6102 -106.0000
180.6843 85.6102 -107.0000
180.6843 85.6102 -108.0000
178.1394 84.4044 -109.0000
180.6843 85.6102 -110.0000
174.2316 92.2015 -77.0000
171.7425 90.8844 -78.0000
171.7425 90.8844 -79.0000
62.2256 32.9291 -80.0000
171.7425 90.8844 -81.0000
171.7425 90.8844 -82.0000
186.6767 98.7873 -83.0000
216.5449 114.5933 -84.0000
194.1437 102.7388 -85.0000
176.7206 93.5187 -102.0000
176.7206 93.5187 -103.0000
176.7206 93.5187 -104.0000
176.7206 93.5187 -105.0000
176.7206 93.5187 -106.0000
176.7206 93.5187 -107.0000
176.7206 93.5187 -108.0000
174.2316 92.2015 -109.0000
176.7206 93.5187 -110.0000
169.9827 99.8181 -77.0000
167.5543 98.3921 -78.0000
167.5543 98.3921 -79.0000
60.7081 35.6493 -80.0000
167.5543 98.3921 -81.0000
167.5543 98.3921 -82.0000
182.1243 106.9480 -83.0000
211.2641 124.0597 -84.0000
189.4092 111.2259 -85.0000
172.4110 101.2441 -102.0000
172.4110 101.2441 -103.0000
172.4110 101.2441 -104.0000
172.4110 101.2441 -105.0000
172.4110 101.2441 -106.0000
172.4110 101.2441 -107.0000
172.4110 101.2441 -108.0000
169.9827 99.8181 -109.0000
172.4110 101.2441 -110.0000
163.0381 105.7073 -77.0000
163.0381 105.7073 -78.0000
163.0381 105.7073 -79.0000
59.0718 38.2998 -80.0000
163.0381 105.7073 -81.0000
163.0381 105.7073 -82.0000
177.2153 114.8993 -83.0000
205.5698 133.2832 -84.0000
184.3040 119.4952 -85.0000
167.7639 108.7713 -102.0000
167.7639 108.7713 -103.0000
167.7639 108.7713 -104.0000
167.7639 108.7713 -105.0000
167.7639 108.7713 -106.0000
167.7639 108.7713 -107.0000
167.7639 108.7713 -108.0000
165.4010 107.2393 -109.0000
167.7639 108.7713 -110.0000
160.4955 114.4506 -77.0000
158.2027 112.8156 -78.0000
158.2027 112.8156 -79.0000
64.1982 45.7802 -80.0000
158.2027 112.8156 -81.0000
158.2027 112.8156 -82.0000
171.9595 122.6256 -83.0000
199.4730 142.2457 -84.0000
178.8379 127.5307 -85.0000
162.7883 116.0856 -102.0000
162.7883 116.0856 -103.0000
162.7883 116.0856 -104.0000
162.7883 116.0856 -105.0000
162.7883 116.0856 -106.0000
162.7883 116.0856 -107.0000
162.7883 116.0856 -108.0000
160.4955 114.4506 -109.0000
162.7883 116.0856 -110.0000
155.2759 121.4378 -77.0000
153.0577 119.7030 -78.0000
153.0577 119.7030 -79.0000
62.1104 48.5751 -80.0000
153.0577 119.7030 -81.0000
153.0577 119.7030 -82.0000
166.3671 130.1120 -83.0000
190.7676 149.1950 -84.0000
173.0217 135.3164 -85.0000
157.4941 123.1727 -102.0000
157.4941 123.1727 -103.0000
157.4941 123.1727 -104.0000
157.4941 123.1727 -105.0000
157.4941 123.1727 -106.0000
157.4941 123.1727 -107.0000
157.4941 123.1727 -108.0000
155.2759 121.4378 -109.0000
157.4941 123.1727 -110.0000
147.6130 126.3561 -77.0000
147.6130 126.3561 -78.0000
147.6130 126.3561 -79.0000
57.7616 49.4437 -80.0000
147.6130 126.3561 -81.0000
147.6130 126.3561 -82.0000
171.1455 146.4998 -83.0000
183.9814 157.4873 -84.0000
166.8669 142.8373 -85.0000
151.8916 130.0186 -101.0000
151.8916 130.0186 -102.0000
151.8916 130.0186 -103.0000
149.7523 128.1873 -104.0000
149.7523 128.1873 -105.0000
149.7523 128.1873 -106.0000
149.7523 128.1873 -107.0000
151.8916 130.0186 -108.0000
149.7523 128.1873 -109.0000
149.7523 128.1873 -110.0000
133.6545 125.0655 -77.0000
133.6545 125.0655 -78.0000
133.6545 125.0655 -79.0000
133.6545 125.0655 -80.0000
133.6545 125.0655 -81.0000
133.6545 125.0655 -82.0000
183.0038 171.2435 -83.0000
168.6103 157.7749 -84.0000
135.7107 126.9896 -85.0000
137.7669 128.9137 -100.0000
135.7107 126.9896 -101.0000
137.7669 128.9137 -102.0000
135.7107 126.9896 -103.0000
135.7107 126.9896 -104.0000
135.7107 126.9896 -105.0000
135.7107 126.9896 -106.0000
135.7107 126.9896 -107.0000
137.7669 128.9137 -108.0000
137.7669 128.9137 -109.0000
118.1461 120.7893 -76.0000
118.1461 120.7893 -77.0000
118.1461 120.7893 -78.0000
118.1461 120.7893 -79.0000
118.1461 120.7893 -80.0000
118.1461 120.7893 -81.0000
171.3118 175.1445 -82.0000
167.3736 171.1182 -83.0000
153.5899 157.0261 -84.0000
122.0843 124.8156 -99.0000
120.1152 122.8024 -100.0000
122.0843 124.8156 -101.0000
122.0843 124.8156 -102.0000
122.0843 124.8156 -103.0000
122.0843 124.8156 -104.0000
120.1152 122.8024 -105.0000
120.1152 122.8024 -106.0000
120.1152 122.8024 -107.0000
122.0843 124.8156 -108.0000
107.0532 119.6022 -76.0000
105.1750 117.5039 -77.0000
107.0532 119.6022 -78.0000
105.1750 117.5039 -79.0000
107.0532 119.6022 -80.0000
118.3219 132.1919 -81.0000
127.7125 142.6833 -82.0000
135.2251 151.0765 -83.0000
108.9313 121.7005 -99.0000
108.9313 121.7005 -100.0000
108.9313 121.7005 -101.0000
108.9313 121.7005 -102.0000
108.9313 121.7005 -103.0000
107.0532 119.6022 -104.0000
107.0532 119.6022 -105.0000
107.0532 119.6022 -106.0000
108.9313 121.7005 -107.0000
96.3076 117.6826 -75.0000
96.3076 117.6826 -76.0000
96.3076 117.6826 -77.0000
96.3076 117.6826 -78.0000
96.3076 117.6826 -79.0000
96.3076 117.6826 -80.0000
78.4728 95.8895 -81.0000
85.6067 104.6067 -82.0000
96.3076 117.6826 -83.0000
99.8745 122.0412 -98.0000
98.0910 119.8619 -99.0000
98.0910 119.8619 -100.0000
98.0910 119.8619 -101.0000
98.0910 119.8619 -102.0000
98.0910 119.8619 -103.0000
98.0910 119.8619 -104.0000
98.0910 119.8619 -105.0000
98.0910 119.8619 -106.0000
98.0910 119.8619 -107.0000
87.6372 117.3152 -75.0000
87.6372 117.3152 -76.0000
87.6372 117.3152 -77.0000
87.6372 117.3152 -78.0000
87.6372 117.3152 -79.0000
58.9865 78.9622 -80.0000
35.3919 47.3773 -81.0000
87.6372 117.3152 -82.0000
87.6372 117.3152 -83.0000
91.0078 121.8274 -98.0000
89.3225 119.5713 -99.0000
89.3225 119.5713 -100.0000
89.3225 119.5713 -101.0000
89.3225 119.5713 -102.0000
89.3225 119.5713 -103.0000
89.3225 119.5713 -104.0000
89.3225 119.5713 -105.0000
89.3225 119.5713 -106.0000
89.3225 119.5713 -107.0000
79.1943 116.4201 -75.0000
79.1943 116.4201 -76.0000
79.1943 116.4201 -77.0000
79.1943 116.4201 -78.0000
107.7043 158.3313 -79.0000
-7.9194 -11.6420 -80.0000
1.5839 2.3284 -81.0000
79.1943 116.4201 -82.0000
82.3621 121.0769 -97.0000
80.7782 118.7485 -98.0000
80.7782 118.7485 -99.0000
80.7782 118.7485 -100.0000
80.7782 118.7485 -101.0000
80.7782 118.7485 -102.0000
80.7782 118.7485 -103.0000
80.7782 118.7485 -104.0000
80.7782 118.7485 -105.0000
80.7782 118.7485 -106.0000
71.0085 115.0168 -74.0000
71.0085 115.0168 -75.0000
71.0085 115.0168 -76.0000
71.0085 115.0168 -77.0000
71.0085 115.0168 -78.0000
118.3475 191.6947 -79.0000
-45.8597 -74.2817 -80.0000
-48.8183 -79.0741 -81.0000
71.0085 115.0168 -82.0000
72.4878 117.4130 -97.0000
72.4878 117.4130 -98.0000
72.4878 117.4130 -99.0000
72.4878 117.4130 -100.0000
72.4878 117.4130 -101.0000
72.4878 117.4130 -102.0000
72.4878 117.4130 -103.0000
72.4878 117.4130 -104.0000
72.4878 117.4130 -105.0000
63.1076 113.1266 -74.0000
63.1076 113.1266 -75.0000
63.1076 113.1266 -76.0000
63.1076 113.1266 -77.0000
108.3804 194.2827 -78.0000
63.1076 113.1266 -79.0000
-53.5043 -95.9117 -80.0000
-89.1738 -159.8529 -81.0000
63.1076 113.1266 -82.0000
65.8514 118.0452 -96.0000
64.4795 115.5859 -97.0000
65.8514 118.0452 -98.0000
64.4795 115.5859 -99.0000
64.4795 115.5859 -100.0000
64.4795 115.5859 -101.0000
64.4795 115.5859 -102.0000
64.4795 115.5859 -103.0000
64.4795 115.5859 -104.0000
64.4795 115.5859 -105.0000
56.7801 113.2898 -74.0000
56.7801 113.2898 -75.0000
56.7801 113.2898 -76.0000
94.6335 188.8164 -77.0000
56.7801 113.2898 -78.0000
56.7801 113.2898 -79.0000
56.7801 113.2898 -80.0000
-104.7277 -208.9568 -81.0000
-100.9424 -201.4041 -82.0000
56.7801 113.2898 -83.0000
58.0419 115.8074 -84.0000
58.0419 115.8074 -85.0000
58.0419 115.8074 -86.0000
58.0419 115.8074 -87.0000
58.0419 115.8074 -88.0000
58.0419 115.8074 -89.0000
58.0419 115.8074 -90.0000
58.0419 115.8074 -91.0000
58.0419 115.8074 -92.0000
58.0419 115.8074 -93.0000
58.0419 115.8074 -94.0000
58.0419 115.8074 -95.0000
58.0419 115.8074 -96.0000
58.0419 115.8074 -97.0000
58.0419 115.8074 -98.0000
58.0419 115.8074 -99.0000
58.0419 115.8074 -100.0000
58.0419 115.8074 -101.0000
58.0419 115.8074 -102.0000
58.0419 115.8074 -103.0000
58.0419 115.8074 -104.0000
58.0419 115.8074 -105.0000
49.4150 110.5487 -74.0000
49.4150 110.5487 -75.0000
63.2052 141.3995 -76.0000
14.9394 33.4217 -77.0000
49.4150 110.5487 -78.0000
50.5641 113.1196 -79.0000
50.5641 113.1196 -80.0000
-41.3707 -92.5524 -81.0000
-57.4593 -128.5450 -82.0000
51.7133 115.6905 -83.0000
51.7133 115.6905 -84.0000
51.7133 115.6905 -85.0000
51.7133 115.6905 -86.0000
51.7133 115.6905 -87.0000
51.7133 115.6905 -88.0000
51.7133 115.6905 -89.0000
51.7133 115.6905 -90.0000
51.7133 115.6905 -91.0000
51.7133 115.6905 -92.0000
51.7133 115.6905 -93.0000
51.7133 115.6905 -94.0000
51.7133 115.6905 -95.0000
51.7133 115.6905 -96.0000
51.7133 115.6905 -97.0000
51.7133 115.6905 -98.0000
51.7133 115.6905 -99.0000
51.7133 115.6905 -100.0000
51.7133 115.6905 -101.0000
51.7133 115.6905 -102.0000
51.7133 115.6905 -103.0000
51.7133 115.6905 -104.0000
44.4767 112.6263 -74.0000
43.4423 110.0071 -75.0000
73.4382 185.9643 -76.0000
43.4423 110.0071 -77.0000
43.4423 110.0071 -78.0000
44.4767 112.6263 -79.0000
44.4767 112.6263 -80.0000
44.4767 112.6263 -81.0000
9.3091 23.5729 -82.0000
45.5110 115.2455 -83.0000
45.5110 115.2455 -84.0000
45.5110 115.2455 -85.0000
45.5110 115.2455 -86.0000
45.5110 115.2455 -87.0000
45.5110 115.2455 -88.0000
45.5110 115.2455 -89.0000
45.5110 115.2455 -90.0000
45.5110 115.2455 -91.0000
45.5110 115.2455 -92.0000
45.5110 115.2455 -93.0000
45.5110 115.2455 -94.0000
45.5110 115.2455 -95.0000
45.5110 115.2455 -96.0000
45.5110 115.2455 -97.0000
45.5110 115.2455 -98.0000
45.5110 115.2455 -99.0000
45.5110 115.2455 -100.0000
45.5110 115.2455 -101.0000
45.5110 115.2455 -102.0000
45.5110 115.2455 -103.0000
44.4767 112.6263 -104.0000
38.5338 111.8210 -73.0000
37.6163 109.1586 -74.0000
57.8007 167.7315 -75.0000
37.6163 109.1586 -76.0000
37.6163 109.1586 -77.0000
37.6163 109.1586 -78.0000
38.5338 111.8210 -79.0000
38.5338 111.8210 -80.0000
38.5338 111.8210 -81.0000
22.0193 63.8977 -82.0000
-3.6699 -10.6496 -83.0000
7.3398 21.2992 -84.0000
39.4513 114.4834 -85.0000
39.4513 114.4834 -86.0000
39.4513 114.4834 -87.0000
39.4513 114.4834 -88.0000
39.4513 114.4834 -89.0000
39.4513 114.4834 -90.0000
39.4513 114.4834 -91.0000
39.4513 114.4834 -92.0000
39.4513 114.4834 -93.0000
39.4513 114.4834 -94.0000
39.4513 114.4834 -95.0000
39.4513 114.4834 -96.0000
39.4513 114.4834 -97.0000
39.4513 114.4834 -98.0000
39.4513 114.4834 -99.0000
39.4513 114.4834 -100.0000
39.4513 114.4834 -101.0000
39.4513 114.4834 -102.0000
39.4513 114.4834 -103.0000
38.5338 111.8210 -104.0000
32.7511 110.7157 -74.0000
32.7511 110.7157 -75.0000
31.9523 108.0153 -76.0000
31.9523 108.0153 -77.0000
32.7511 110.7157 -78.0000
32.7511 110.7157 -79.0000
32.7511 110.7157 -80.0000
33.5499 113.4160 -81.0000
33.5499 113.4160 -82.0000
11.1833 37.8053 -83.0000
2.3964 8.1011 -84.0000
33.5499 113.4160 -85.0000
33.5499 113.4160 -86.0000
33.5499 113.4160 -87.0000
33.5499 113.4160 -88.0000
33.5499 113.4160 -89.0000
33.5499 113.4160 -90.0000
33.5499 113.4160 -91.0000
33.5499 113.4160 -92.0000
33.5499 113.4160 -93.0000
33.5499 113.4160 -94.0000
33.5499 113.4160 -95.0000
33.5499 113.4160 -96.0000
33.5499 113.4160 -97.0000
33.5499 113.4160 -98.0000
33.5499 113.4160 -99.0000
33.5499 113.4160 -100.0000
33.5499 113.4160 -101.0000
33.5499 113.4160 -102.0000
32.7511 110.7157 -103.0000
32.7511 110.7157 -104.0000
27.1431 109.3229 -73.0000
27.1431 109.3229 -74.0000
27.1431 109.3229 -75.0000
27.1431 109.3229 -76.0000
27.1431 109.3229 -77.0000
27.1431 109.3229 -78.0000
27.1431 109.3229 -79.0000
27.8217 112.0560 -80.0000
27.8217 112.0560 -81.0000
27.8217 112.0560 -82.0000
27.8217 112.0560 -83.0000
10.8573 43.7292 -84.0000
9.5001 38.2630 -85.0000
28.5003 114.7891 -86.0000
28.5003 114.7891 -87.0000
28.5003 114.7891 -88.0000
28.5003 114.7891 -89.0000
28.5003 114.7891 -90.0000
28.5003 114.7891 -91.0000
28.5003 114.7891 -92.0000
28.5003 114.7891 -93.0000
28.5003 114.7891 -94.0000
28.5003 114.7891 -95.0000
28.5003 114.7891 -96.0000
28.5003 114.7891 -97.0000
28.5003 114.7891 -98.0000
27.8217 112.0560 -99.0000
27.8217 112.0560 -100.0000
27.8217 112.0560 -101.0000
27.8217 112.0560 -102.0000
27.8217 112.0560 -103.0000
27.8217 112.0560 -104.0000
22.2808 110.4165 -73.0000
22.2808 110.4165 -74.0000
21.7238 107.6561 -75.0000
21.7238 107.6561 -76.0000
22.2808 110.4165 -77.0000
22.2808 110.4165 -78.0000
22.2808 110.4165 -79.0000
22.2808 110.4165 -80.0000
22.2808 110.4165 -81.0000
22.2808 110.4165 -82.0000
22.2808 110.4165 -83.0000
22.2808 110.4165 -84.0000
2.7851 13.8021 -85.0000
22.2808 110.4165 -86.0000
22.8378 113.1769 -87.0000
22.8378 113.1769 -88.0000
22.8378 113.1769 -89.0000
22.8378 113.1769 -90.0000
22.8378 113.1769 -91.0000
22.8378 113.1769 -92.0000
22.8378 113.1769 -93.0000
22.8378 113.1769 -94.0000
22.8378 113.1769 -95.0000
22.8378 113.1769 -96.0000
22.8378 113.1769 -97.0000
22.8378 113.1769 -98.0000
22.2808 110.4165 -99.0000
22.2808 110.4165 -100.0000
22.2808 110.4165 -101.0000
22.2808 110.4165 -102.0000
22.2808 110.4165 -103.0000
22.2808 110.4165 -104.0000
22.2808 110.4165 -105.0000
16.9406 108.5117 -73.0000
16.9406 108.5117 -74.0000
16.5062 105.7293 -75.0000
16.5062 105.7293 -76.0000
16.9406 108.5117 -77.0000
17.3749 111.2940 -78.0000
17.3749 111.2940 -79.0000
17.3749 111.2940 -80.0000
17.3749 111.2940 -81.0000
17.3749 111.2940 -82.0000
17.3749 111.2940 -83.0000
17.3749 111.2940 -84.0000
3.0406 19.4765 -85.0000
-0.4344 -2.7824 -86.0000
17.3749 111.2940 -87.0000
17.3749 111.2940 -88.0000
17.3749 111.2940 -89.0000
17.3749 111.2940 -90.0000
17.3749 111.2940 -91.0000
17.3749 111.2940 -92.0000
17.3749 111.2940 -93.0000
17.8093 114.0764 -94.0000
17.3749 111.2940 -95.0000
17.3749 111.2940 -96.0000
17.3749 111.2940 -97.0000
17.3749 111.2940 -98.0000
17.3749 111.2940 -99.0000
17.3749 111.2940 -100.0000
17.3749 111.2940 -101.0000
17.3749 111.2940 -102.0000
17.3749 111.2940 -103.0000
16.9406 108.5117 -104.0000
12.1241 109.1548 -73.0000
12.1241 109.1548 -74.0000
11.8133 106.3560 -75.0000
11.8133 106.3560 -76.0000
11.8133 106.3560 -77.0000
12.1241 109.1548 -78.0000
12.1241 109.1548 -79.0000
12.1241 109.1548 -80.0000
12.1241 109.1548 -81.0000
12.1241 109.1548 -82.0000
12.1241 109.1548 -83.0000
12.1241 109.1548 -84.0000
12.1241 109.1548 -85.0000
-0.3109 -2.7988 -86.0000
0.6218 5.5977 -87.0000
12.1241 109.1548 -88.0000
12.4350 111.9536 -89.0000
12.4350 111.9536 -90.0000
12.4350 111.9536 -91.0000
12.4350 111.9536 -92.0000
12.4350 111.9536 -93.0000
12.4350 111.9536 -94.0000
12.4350 111.9536 -95.0000
12.4350 111.9536 -96.0000
12.1241 109.1548 -97.0000
12.4350 111.9536 -98.0000
12.4350 111.9536 -99.0000
12.1241 109.1548 -100.0000
12.1241 109.1548 -101.0000
12.1241 109.1548 -102.0000
12.1241 109.1548 -103.0000
12.1241 109.1548 -104.0000
12.1241 109.1548 -105.0000
7.0972 106.7744 -73.0000
7.0972 106.7744 -74.0000
7.0972 106.7744 -75.0000
7.0972 106.7744 -76.0000
7.0972 106.7744 -77.0000
7.0972 106.7744 -78.0000
7.2840 109.5843 -79.0000
7.2840 109.5843 -80.0000
7.2840 109.5843 -81.0000
7.2840 109.5843 -82.0000
7.2840 109.5843 -83.0000
7.2840 109.5843 -84.0000
7.2840 109.5843 -85.0000
7.2840 109.5843 -86.0000
0.0000 0.0000 -87.0000
7.2840 109.5843 -88.0000
7.2840 109.5843 -89.0000
7.2840 109.5843 -90.0000
7.2840 109.5843 -91.0000
7.2840 109.5843 -92.0000
7.2840 109.5843 -93.0000
7.2840 109.5843 -94.0000
7.2840 109.5843 -95.0000
7.2840 109.5843 -96.0000
7.2840 109.5843 -97.0000
7.4708 112.3941 -98.0000
7.2840 109.5843 -99.0000
7.2840 109.5843 -100.0000
7.2840 109.5843 -101.0000
7.2840 109.5843 -102.0000
7.2840 109.5843 -103.0000
7.2840 109.5843 -104.0000
2.3673 106.9838 -73.0000
2.3673 106.9838 -74.0000
2.3050 104.1685 -75.0000
2.3050 104.1685 -76.0000
2.3673 106.9838 -77.0000
2.3673 106.9838 -78.0000
2.3673 106.9838 -79.0000
2.3673 106.9838 -80.0000
2.4296 109.7992 -81.0000
2.4296 109.7992 -82.0000
2.4296 109.7992 -83.0000
2.4296 109.7992 -84.0000
2.4296 109.7992 -85.0000
2.4296 109.7992 -86.0000
0.2492 11.2615 -87.0000
0.3738 16.8922 -88.0000
2.4296 109.7992 -89.0000
2.4296 109.7992 -90.0000
2.4296 109.7992 -91.0000
2.4296 109.7992 -92.0000
2.4296 109.7992 -93.0000
2.4296 109.7992 -94.0000
2.4296 109.7992 -95.0000
2.4296 109.7992 -96.0000
2.4296 109.7992 -97.0000
2.4296 109.7992 -98.0000
2.4296 109.7992 -99.0000
2.4296 109.7992 -100.0000
2.4296 109.7992 -101.0000
2.4296 109.7992 -102.0000
2.4296 109.7992 -103.0000
2.4296 109.7992 -104.0000
9.7183 -439.1967 -29.0000
-2.3673 106.9838 -73.0000
-2.3050 104.1685 -74.0000
-2.3050 104.1685 -75.0000
-2.3050 104.1685 -76.0000
-2.3050 104.1685 -77.0000
-2.3673 106.9838 -78.0000
-2.3673 106.9838 -79.0000
-2.3673 106.9838 -80.0000
-2.3673 106.9838 -81.0000
-2.3673 106.9838 -82.0000
-2.3673 106.9838 -83.0000
-2.3673 106.9838 -84.0000
-2.3673 106.9838 -85.0000
-2.4296 109.7992 -86.0000
-2.4296 109.7992 -87.0000
0.2492 -11.2615 -88.0000
-0.8722 39.4151 -89.0000
-2.4296 109.7992 -90.0000
-2.4296 109.7992 -91.0000
-2.4296 109.7992 -92.0000
-2.4296 109.7992 -93.0000
-2.4296 109.7992 -94.0000
-2.4296 109.7992 -95.0000
-2.4296 109.7992 -96.0000
-2.4296 109.7992 -97.0000
-2.4296 109.7992 -98.0000
-2.3673 106.9838 -99.0000
-2.4296 109.7992 -100.0000
-2.4296 109.7992 -101.0000
-2.3673 106.9838 -102.0000
-2.3673 106.9838 -103.0000
29.1360 -438.3370 -29.0000
-7.0972 106.7744 -73.0000
-6.9105 103.9645 -74.0000
-6.9105 103.9645 -75.0000
-6.9105 103.9645 -76.0000
-6.9105 103.9645 -77.0000
-6.9105 103.9645 -78.0000
-7.0972 106.7744 -79.0000
-7.0972 106.7744 -80.0000
-7.0972 106.7744 -81.0000
-7.0972 106.7744 -82.0000
-7.0972 106.7744 -83.0000
-7.0972 106.7744 -84.0000
-7.0972 106.7744 -85.0000
-7.0972 106.7744 -86.0000
-7.0972 106.7744 -87.0000
-7.0972 106.7744 -88.0000
2.4280 -36.5281 -89.0000
-7.2840 109.5843 -90.0000
-7.2840 109.5843 -91.0000
-7.2840 109.5843 -92.0000
-7.2840 109.5843 -93.0000
-7.2840 109.5843 -94.0000
-7.2840 109.5843 -95.0000
-7.2840 109.5843 -96.0000
-7.2840 109.5843 -97.0000
-7.0972 106.7744 -98.0000
-7.0972 106.7744 -99.0000
-7.0972 106.7744 -100.0000
-7.0972 106.7744 -101.0000
-7.0972 106.7744 -102.0000
-7.0972 106.7744 -103.0000
-7.0972 106.7744 -104.0000
48.4966 -436.6192 -29.0000
-11.5024 103.5571 -74.0000
-11.5024 103.5571 -75.0000
-11.5024 103.5571 -76.0000
-11.5024 103.5571 -77.0000
-11.5024 103.5571 -78.0000
-11.8133 106.3560 -79.0000
-11.8133 106.3560 -80.0000
-11.8133 106.3560 -81.0000
-11.8133 106.3560 -82.0000
-12.1241 109.1548 -83.0000
-12.1241 109.1548 -84.0000
-12.1241 109.1548 -85.0000
-12.1241 109.1548 -86.0000
-12.1241 109.1548 -87.0000
-12.1241 109.1548 -88.0000
0.0000 0.0000 -89.0000
4.6631 -41.9826 -90.0000
-12.1241 109.1548 -91.0000
-12.1241 109.1548 -92.0000
-12.1241 109.1548 -93.0000
-12.1241 109.1548 -94.0000
-12.1241 109.1548 -95.0000
-12.1241 109.1548 -96.0000
-12.1241 109.1548 -97.0000
-11.8133 106.3560 -98.0000
-11.8133 106.3560 -99.0000
-11.8133 106.3560 -100.0000
-11.8133 106.3560 -101.0000
-11.8133 106.3560 -102.0000
-11.8133 106.3560 -103.0000
-11.8133 106.3560 -104.0000
67.7622 -434.0467 -28.0000
67.7622 -434.0467 -29.0000
-65.1560 417.3526 -69.0000
-16.0718 102.9470 -74.0000
-16.0718 102.9470 -75.0000
-16.0718 102.9470 -76.0000
-16.0718 102.9470 -77.0000
-16.0718 102.9470 -78.0000
-16.0718 102.9470 -79.0000
-16.0718 102.9470 -80.0000
-16.0718 102.9470 -81.0000
-16.5062 105.7293 -82.0000
-16.5062 105.7293 -83.0000
-16.5062 105.7293 -84.0000
-16.5062 105.7293 -85.0000
-16.5062 105.7293 -86.0000
-16.5062 105.7293 -87.0000
-16.5062 105.7293 -88.0000
-16.5062 105.7293 -89.0000
6.0812 -38.9529 -90.0000
-5.2125 33.3882 -91.0000
-16.9406 108.5117 -92.0000
-16.5062 105.7293 -93.0000
-16.5062 105.7293 -94.0000
-16.5062 105.7293 -95.0000
-16.5062 105.7293 -96.0000
-16.5062 105.7293 -97.0000
-16.9406 108.5117 -98.0000
-16.5062 105.7293 -99.0000
-16.5062 105.7293 -100.0000
-16.5062 105.7293 -101.0000
-16.5062 105.7293 -102.0000
-16.5062 105.7293 -103.0000
-16.5062 105.7293 -104.0000
86.8953 -430.6245 -28.0000
86.8953 -430.6245 -29.0000
-83.5531 414.0620 -68.0000
-78.5399 389.2183 -69.0000
-74.0838 367.1350 -70.0000
-68.5136 339.5309 -71.0000
-62.9434 311.9267 -72.0000
-20.6098 102.1353 -74.0000
-20.6098 102.1353 -75.0000
-20.6098 102.1353 -76.0000
-20.6098 102.1353 -77.0000
-21.1668 104.8957 -78.0000
-20.6098 102.1353 -79.0000
-20.6098 102.1353 -80.0000
-20.6098 102.1353 -81.0000
-21.1668 104.8957 -82.0000
-21.1668 104.8957 -83.0000
-21.1668 104.8957 -84.0000
-21.1668 104.8957 -85.0000
-21.1668 104.8957 -86.0000
-21.1668 104.8957 -87.0000
-21.1668 104.8957 -88.0000
-21.1668 104.8957 -89.0000
-2.7851 13.8021 -90.0000
3.3421 -16.5625 -91.0000
-21.1668 104.8957 -92.0000
-21.1668 104.8957 -96.0000
-21.1668 104.8957 -97.0000
-21.1668 104.8957 -98.0000
-21.7238 107.6561 -99.0000
-21.1668 104.8957 -100.0000
-21.1668 104.8957 -101.0000
-21.1668 104.8957 -102.0000
-21.1668 104.8957 -103.0000
105.8581 -426.3593 -28.0000
105.8581 -426.3593 -29.0000
-86.8580 349.8333 -70.0000
-80.0722 322.5026 -71.0000
-73.9650 297.9049 -72.0000
-56.3220 226.8450 -73.0000
-45.4647 183.1159 -74.0000
-40.0361 161.2513 -75.0000
-37.3218 150.3190 -76.0000
-32.5717 131.1875 -77.0000
-30.5360 122.9883 -78.0000
-25.7860 103.8568 -79.0000
-25.7860 103.8568 -80.0000
-25.1074 101.1237 -81.0000
-26.4645 106.5898 -96.0000
-25.7860 103.8568 -97.0000
-26.4645 106.5898 -98.0000
-26.4645 106.5898 -99.0000
-26.4645 106.5898 -100.0000
-25.7860 103.8568 -101.0000
-25.7860 103.8568 -102.0000
-25.7860 103.8568 -103.0000
124.6138 -421.2596 -28.0000
124.6138 -421.2596 -29.0000
-49.5260 167.4237 -74.0000
-46.3308 156.6221 -75.0000
-43.9344 148.5210 -76.0000
-40.7391 137.7195 -77.0000
-36.7451 124.2176 -78.0000
-33.5499 113.4160 -79.0000
-30.3547 102.6145 -80.0000
-26.3606 89.1126 -81.0000
-22.3666 75.6107 -82.0000
-31.1535 105.3149 -97.0000
-31.1535 105.3149 -98.0000
-31.1535 105.3149 -99.0000
-31.1535 105.3149 -100.0000
-31.1535 105.3149 -101.0000
-31.1535 105.3149 -102.0000
-30.3547 102.6145 -103.0000
143.1255 -415.3352 -26.0000
143.1255 -415.3352 -27.0000
143.1255 -415.3352 -28.0000
143.1255 -415.3352 -29.0000
143.1255 -415.3352 -30.0000
-34.8639 101.1714 -74.0000
-34.8639 101.1714 -75.0000
-44.9561 130.4578 -76.0000
-44.0386 127.7954 -77.0000
-42.2037 122.4706 -78.0000
-38.5338 111.8210 -79.0000
-34.8639 101.1714 -80.0000
-30.2766 87.8594 -81.0000
-25.6892 74.5473 -82.0000
-17.4320 50.5857 -83.0000
-6.4223 18.6368 -84.0000
0.0000 0.0000 -85.0000
-35.7814 103.8338 -97.0000
-35.7814 103.8338 -98.0000
-35.7814 103.8338 -99.0000
-35.7814 103.8338 -100.0000
-35.7814 103.8338 -101.0000
-35.7814 103.8338 -102.0000
-35.7814 103.8338 -103.0000
-35.7814 103.8338 -104.0000
161.3572 -408.5977 -26.0000
161.3572 -408.5977 -27.0000
161.3572 -408.5977 -28.0000
161.3572 -408.5977 -29.0000
161.3572 -408.5977 -30.0000
-40.3393 102.1494 -74.0000
-40.3393 102.1494 -75.0000
-40.3393 102.1494 -76.0000
-40.3393 102.1494 -77.0000
-40.3393 102.1494 -78.0000
-40.3393 102.1494 -79.0000
-40.3393 102.1494 -80.0000
-37.2363 94.2918 -81.0000
-31.0302 78.5765 -82.0000
-21.7212 55.0035 -83.0000
-9.3091 23.5729 -84.0000
-2.0687 5.2384 -85.0000
5.1717 -13.0961 -86.0000
13.4464 -34.0498 -87.0000
19.6525 -49.7651 -88.0000
24.8242 -62.8612 -89.0000
-40.3393 102.1494 -97.0000
-40.3393 102.1494 -98.0000
-40.3393 102.1494 -99.0000
-40.3393 102.1494 -100.0000
-40.3393 102.1494 -101.0000
-40.3393 102.1494 -102.0000
-40.3393 102.1494 -103.0000
-40.3393 102.1494 -104.0000
179.2729 -401.0604 -23.0000
179.2729 -401.0604 -24.0000
179.2729 -401.0604 -25.0000
179.2729 -401.0604 -26.0000
179.2729 -401.0604 -27.0000
179.2729 -401.0604 -28.0000
179.2729 -401.0604 -29.0000
179.2729 -401.0604 -30.0000
179.2729 -401.0604 -31.0000
179.2729 -401.0604 -32.0000
-45.9674 102.8360 -74.0000
-45.9674 102.8360 -75.0000
-44.8182 100.2651 -76.0000
-44.8182 100.2651 -77.0000
-44.8182 100.2651 -78.0000
-44.8182 100.2651 -79.0000
-44.8182 100.2651 -80.0000
-44.8182 100.2651 -81.0000
-44.8182 100.2651 -82.0000
17.2378 -38.5635 -88.0000
25.2821 -56.5598 -89.0000
33.3264 -74.5561 -90.0000
37.9231 -84.8397 -91.0000
41.3707 -92.5524 -92.0000
-45.9674 102.8360 -97.0000
-45.9674 102.8360 -98.0000
-45.9674 102.8360 -99.0000
-45.9674 102.8360 -100.0000
-45.9674 102.8360 -101.0000
-45.9674 102.8360 -102.0000
-45.9674 102.8360 -103.0000
-45.9674 102.8360 -104.0000
-45.9674 102.8360 -105.0000
196.8376 -392.7381 -23.0000
196.8376 -392.7381 -24.0000
196.8376 -392.7381 -25.0000
196.8376 -392.7381 -26.0000
196.8376 -392.7381 -27.0000
196.8376 -392.7381 -28.0000
196.8376 -392.7381 -29.0000
196.8376 -392.7381 -30.0000
196.8376 -392.7381 -31.0000
196.8376 -392.7381 -32.0000
-51.7330 103.2196 -74.0000
-50.4712 100.7021 -75.0000
-50.4712 100.7021 -76.0000
-50.4712 100.7021 -77.0000
-50.4712 100.7021 -78.0000
-50.4712 100.7021 -79.0000
-50.4712 100.7021 -80.0000
-50.4712 100.7021 -81.0000
-50.4712 100.7021 -82.0000
70.6597 -140.9829 -93.0000
69.3979 -138.4653 -94.0000
-51.7330 103.2196 -97.0000
-51.7330 103.2196 -98.0000
-51.7330 103.2196 -99.0000
-51.7330 103.2196 -100.0000
-51.7330 103.2196 -101.0000
-51.7330 103.2196 -102.0000
-51.7330 103.2196 -103.0000
-51.7330 103.2196 -104.0000
-51.7330 103.2196 -105.0000
214.0171 -383.6469 -23.0000
214.0171 -383.6469 -24.0000
214.0171 -383.6469 -25.0000
214.0171 -383.6469 -26.0000
214.0171 -383.6469 -27.0000
214.0171 -383.6469 -28.0000
214.0171 -383.6469 -29.0000
214.0171 -383.6469 -30.0000
214.0171 -383.6469 -31.0000
214.0171 -383.6469 -32.0000
-56.2481 100.8303 -75.0000
-56.2481 100.8303 -76.0000
-56.2481 100.8303 -77.0000
-56.2481 100.8303 -78.0000
-56.2481 100.8303 -79.0000
-56.2481 100.8303 -80.0000
-56.2481 100.8303 -81.0000
-56.2481 100.8303 -82.0000
64.4795 -115.5859 -94.0000
-57.6200 103.2895 -98.0000
-57.6200 103.2895 -99.0000
-57.6200 103.2895 -100.0000
-57.6200 103.2895 -101.0000
-57.6200 103.2895 -102.0000
-57.6200 103.2895 -103.0000
-57.6200 103.2895 -104.0000
-57.6200 103.2895 -105.0000
230.7777 -373.8047 -23.0000
230.7777 -373.8047 -24.0000
230.7777 -373.8047 -25.0000
230.7777 -373.8047 -26.0000
230.7777 -373.8047 -27.0000
230.7777 -373.8047 -28.0000
230.7777 -373.8047 -29.0000
230.7777 -373.8047 -30.0000
230.7777 -373.8047 -31.0000
230.7777 -373.8047 -32.0000
-63.6118 103.0359 -75.0000
-63.6118 103.0359 -76.0000
-62.1325 100.6397 -77.0000
-62.1325 100.6397 -78.0000
-63.6118 103.0359 -79.0000
-63.6118 103.0359 -80.0000
-63.6118 103.0359 -81.0000
-62.1325 100.6397 -82.0000
56.2151 -91.0550 -94.0000
56.2151 -91.0550 -95.0000
-63.6118 103.0359 -99.0000
-63.6118 103.0359 -100.0000
-63.6118 103.0359 -101.0000
-63.6118 103.0359 -102.0000
-63.6118 103.0359 -103.0000
-63.6118 103.0359 -104.0000
-63.6118 103.0359 -105.0000
-65.0911 105.4321 -106.0000
247.0864 -363.2307 -23.0000
247.0864 -363.2307 -24.0000
247.0864 -363.2307 -25.0000
247.0864 -363.2307 -26.0000
247.0864 -363.2307 -27.0000
247.0864 -363.2307 -28.0000
247.0864 -363.2307 -29.0000
247.0864 -363.2307 -30.0000
247.0864 -363.2307 -31.0000
247.0864 -363.2307 -32.0000
-69.6910 102.4497 -76.0000
-69.6910 102.4497 -77.0000
-69.6910 102.4497 -78.0000
-69.6910 102.4497 -79.0000
-69.6910 102.4497 -80.0000
-69.6910 102.4497 -81.0000
-69.6910 102.4497 -82.0000
-69.6910 102.4497 -83.0000
38.0133 -55.8817 -94.0000
45.9327 -67.5237 -95.0000
-71.2749 104.7781 -99.0000
-71.2749 104.7781 -100.0000
-71.2749 104.7781 -101.0000
-71.2749 104.7781 -102.0000
-71.2749 104.7781 -103.0000
-71.2749 104.7781 -104.0000
-71.2749 104.7781 -105.0000
-71.2749 104.7781 -106.0000
262.9115 -351.9457 -23.0000
262.9115 -351.9457 -24.0000
262.9115 -351.9457 -25.0000
262.9115 -351.9457 -26.0000
262.9115 -351.9457 -27.0000
262.9115 -351.9457 -28.0000
262.9115 -351.9457 -29.0000
262.9115 -351.9457 -30.0000
262.9115 -351.9457 -31.0000
262.9115 -351.9457 -32.0000
-77.5252 103.7789 -76.0000
-77.5252 103.7789 -77.0000
-77.5252 103.7789 -78.0000
-77.5252 103.7789 -79.0000
-77.5252 103.7789 -80.0000
-75.8398 101.5228 -81.0000
-75.8398 101.5228 -82.0000
-77.5252 103.7789 -83.0000
20.2240 -27.0728 -94.0000
33.7066 -45.1213 -95.0000
-79.2105 106.0349 -100.0000
-77.5252 103.7789 -101.0000
-77.5252 103.7789 -102.0000
-77.5252 103.7789 -103.0000
-77.5252 103.7789 -104.0000
-77.5252 103.7789 -105.0000
-79.2105 106.0349 -106.0000
278.2218 -339.9718 -23.0000
278.2218 -339.9718 -24.0000
278.2218 -339.9718 -25.0000
278.2218 -339.9718 -26.0000
278.2218 -339.9718 -27.0000
278.2218 -339.9718 -28.0000
278.2218 -339.9718 -29.0000
278.2218 -339.9718 -30.0000
278.2218 -339.9718 -31.0000
278.2218 -339.9718 -32.0000
-85.6067 104.6067 -77.0000
-83.8232 102.4274 -78.0000
-83.8232 102.4274 -79.0000
-85.6067 104.6067 -80.0000
-85.6067 104.6067 -81.0000
-14.2678 17.4345 -82.0000
-85.6067 104.6067 -83.0000
17.8347 -21.7931 -94.0000
17.8347 -21.7931 -95.0000
-85.6067 104.6067 -102.0000
-85.6067 104.6067 -103.0000
-85.6067 104.6067 -104.0000
-85.6067 104.6067 -105.0000
292.9876 -327.3324 -23.0000
292.9876 -327.3324 -24.0000
292.9876 -327.3324 -25.0000
292.9876 -327.3324 -26.0000
292.9876 -327.3324 -27.0000
292.9876 -327.3324 -28.0000
292.9876 -327.3324 -29.0000
292.9876 -327.3324 -30.0000
292.9876 -327.3324 -31.0000
292.9876 -327.3324 -32.0000
-93.9063 104.9142 -79.0000
-93.9063 104.9142 -80.0000
-95.7844 107.0125 -81.0000
-95.7844 107.0125 -82.0000
-93.9063 104.9142 -83.0000
-13.1469 14.6880 -94.0000
3.7563 -4.1966 -95.0000
-95.7844 107.0125 -103.0000
-95.7844 107.0125 -104.0000
307.1799 -314.0522 -23.0000
307.1799 -314.0522 -24.0000
307.1799 -314.0522 -25.0000
307.1799 -314.0522 -26.0000
307.1799 -314.0522 -27.0000
307.1799 -314.0522 -28.0000
307.1799 -314.0522 -29.0000
307.1799 -314.0522 -30.0000
307.1799 -314.0522 -31.0000
307.1799 -314.0522 -32.0000
-104.3624 106.6972 -80.0000
-104.3624 106.6972 -81.0000
-104.3624 106.6972 -82.0000
-104.3624 106.6972 -83.0000
-106.3315 108.7104 -84.0000
-29.5365 30.1973 -94.0000
-7.8764 8.0526 -95.0000
1.9691 -2.0132 -100.0000
0.0000 0.0000 -101.0000
-106.3315 108.7104 -105.0000
-106.3315 108.7104 -106.0000
320.7708 -300.1572 -23.0000
320.7708 -300.1572 -24.0000
320.7708 -300.1572 -25.0000
320.7708 -300.1572 -26.0000
320.7708 -300.1572 -27.0000
320.7708 -300.1572 -28.0000
320.7708 -300.1572 -29.0000
320.7708 -300.1572 -30.0000
320.7708 -300.1572 -31.0000
320.7708 -300.1572 -32.0000
-119.2609 111.5969 -81.0000
-117.2047 109.6728 -82.0000
-117.2047 109.6728 -83.0000
-117.2047 109.6728 -84.0000
-119.2609 111.5969 -85.0000
71.9678 -67.3430 -87.0000
45.2369 -42.3299 -93.0000
37.0120 -34.6335 -94.0000
8.2249 -7.6963 -95.0000
14.3936 -13.4686 -99.0000
4.1124 -3.8482 -100.0000
4.1124 -3.8482 -101.0000
333.7338 -285.6747 -23.0000
333.7338 -285.6747 -24.0000
333.7338 -285.6747 -25.0000
333.7338 -285.6747 -26.0000
333.7338 -285.6747 -27.0000
333.7338 -285.6747 -28.0000
333.7338 -285.6747 -29.0000
333.7338 -285.6747 -30.0000
333.7338 -285.6747 -31.0000
333.7338 -285.6747 -32.0000
-134.7771 115.3686 -83.0000
-132.6378 113.5374 -84.0000
-134.7771 115.3686 -85.0000
74.8762 -64.0937 -86.0000
121.9412 -104.3811 -87.0000
136.9164 -117.1999 -92.0000
126.2198 -108.0436 -93.0000
102.6873 -87.8999 -94.0000
346.0435 -270.6328 -23.0000
346.0435 -270.6328 -24.0000
346.0435 -270.6328 -25.0000
346.0435 -270.6328 -26.0000
346.0435 -270.6328 -27.0000
346.0435 -270.6328 -28.0000
346.0435 -270.6328 -29.0000
346.0435 -270.6328 -30.0000
346.0435 -270.6328 -31.0000
346.0435 -270.6328 -32.0000
170.8035 -133.5816 -87.0000
179.6764 -140.5209 -92.0000
173.0217 -135.3164 -93.0000
357.6757 -255.0613 -23.0000
357.6757 -255.0613 -24.0000
357.6757 -255.0613 -25.0000
357.6757 -255.0613 -26.0000
357.6757 -255.0613 -27.0000
357.6757 -255.0613 -28.0000
357.6757 -255.0613 -29.0000
357.6757 -255.0613 -30.0000
357.6757 -255.0613 -31.0000
357.6757 -255.0613 -32.0000
-174.2523 124.2607 -85.0000
-174.2523 124.2607 -86.0000
-29.8063 21.2551 -87.0000
-176.5451 125.8957 -88.0000
-176.5451 125.8957 -89.0000
-176.5451 125.8957 -90.0000
178.8379 -127.5307 -93.0000
176.5451 -125.8957 -94.0000
-178.8379 127.5307 -111.0000
-178.8379 127.5307 -112.0000
-178.8379 127.5307 -113.0000
368.6079 -238.9905 -23.0000
368.6079 -238.9905 -24.0000
368.6079 -238.9905 -25.0000
368.6079 -238.9905 -26.0000
368.6079 -238.9905 -27.0000
368.6079 -238.9905 -28.0000
368.6079 -238.9905 -29.0000
368.6079 -238.9905 -30.0000
368.6079 -238.9905 -31.0000
368.6079 -238.9905 -32.0000
-191.3926 124.0912 -84.0000
-191.3926 124.0912 -85.0000
-191.3926 124.0912 -86.0000
-191.3926 124.0912 -87.0000
-191.3926 124.0912 -88.0000
-191.3926 124.0912 -89.0000
-191.3926 124.0912 -90.0000
-191.3926 124.0912 -91.0000
-191.3926 124.0912 -92.0000
-25.9916 16.8519 -93.0000
0.0000 0.0000 -94.0000
-193.7554 125.6232 -109.0000
-193.7554 125.6232 -110.0000
-193.7554 125.6232 -111.0000
-193.7554 125.6232 -112.0000
-193.7554 125.6232 -113.0000
-193.7554 125.6232 -114.0000
-193.7554 125.6232 -115.0000
-193.7554 125.6232 -116.0000
-191.3926 124.0912 -117.0000
-193.7554 125.6232 -118.0000
-193.7554 125.6232 -119.0000
378.8185 -222.4518 -23.0000
378.8185 -222.4518 -24.0000
378.8185 -222.4518 -25.0000
378.8185 -222.4518 -26.0000
378.8185 -222.4518 -27.0000
378.8185 -222.4518 -28.0000
378.8185 -222.4518 -29.0000
378.8185 -222.4518 -30.0000
378.8185 -222.4518 -31.0000
378.8185 -222.4518 -32.0000
-199.1225 116.9298 -84.0000
-199.1225 116.9298 -85.0000
-199.1225 116.9298 -86.0000
-199.1225 116.9298 -87.0000
-199.1225 116.9298 -88.0000
-199.1225 116.9298 -89.0000
-199.1225 116.9298 -90.0000
-201.5508 118.3558 -91.0000
-201.5508 118.3558 -92.0000
-199.1225 116.9298 -93.0000
-63.1364 37.0753 -94.0000
-97.1329 57.0389 -95.0000
-201.5508 118.3558 -96.0000
-201.5508 118.3558 -97.0000
-201.5508 118.3558 -98.0000
-201.5508 118.3558 -99.0000
-201.5508 118.3558 -100.0000
-201.5508 118.3558 -101.0000
-201.5508 118.3558 -102.0000
-201.5508 118.3558 -103.0000
-201.5508 118.3558 -104.0000
-201.5508 118.3558 -105.0000
-201.5508 118.3558 -106.0000
-201.5508 118.3558 -107.0000
-201.5508 118.3558 -108.0000
-201.5508 118.3558 -109.0000
-201.5508 118.3558 -110.0000
-201.5508 118.3558 -111.0000
-201.5508 118.3558 -112.0000
-201.5508 118.3558 -113.0000
-201.5508 118.3558 -114.0000
-199.1225 116.9298 -115.0000
-199.1225 116.9298 -116.0000
-199.1225 116.9298 -117.0000
-201.5508 118.3558 -118.0000
-201.5508 118.3558 -119.0000
388.2875 -205.4777 -23.0000
388.2875 -205.4777 -24.0000
388.2875 -205.4777 -25.0000
388.2875 -205.4777 -26.0000
388.2875 -205.4777 -27.0000
388.2875 -205.4777 -28.0000
388.2875 -205.4777 -29.0000
388.2875 -205.4777 -30.0000
388.2875 -205.4777 -31.0000
388.2875 -205.4777 -32.0000
-201.6108 106.6903 -83.0000
-201.6108 106.6903 -84.0000
-199.1218 105.3732 -85.0000
-199.1218 105.3732 -86.0000
-199.1218 105.3732 -87.0000
-199.1218 105.3732 -88.0000
-201.6108 106.6903 -89.0000
-206.5888 109.3247 -90.0000
-211.5669 111.9590 -91.0000
-201.6108 106.6903 -92.0000
-201.6108 106.6903 -93.0000
-121.9621 64.5411 -94.0000
-84.6268 44.7836 -95.0000
-204.0998 108.0075 -96.0000
-204.0998 108.0075 -97.0000
-204.0998 108.0075 -98.0000
-204.0998 108.0075 -99.0000
-204.0998 108.0075 -100.0000
-204.0998 108.0075 -101.0000
-204.0998 108.0075 -102.0000
-204.0998 108.0075 -103.0000
-204.0998 108.0075 -104.0000
-204.0998 108.0075 -105.0000
-204.0998 108.0075 -106.0000
-204.0998 108.0075 -107.0000
-204.0998 108.0075 -108.0000
-204.0998 108.0075 -109.0000
-204.0998 108.0075 -110.0000
-204.0998 108.0075 -111.0000
-204.0998 108.0075 -112.0000
-201.6108 106.6903 -113.0000
-201.6108 106.6903 -114.0000
-201.6108 106.6903 -115.0000
-201.6108 106.6903 -116.0000
-199.1218 105.3732 -117.0000
-201.6108 106.6903 -118.0000
-201.6108 106.6903 -119.0000
396.9964 -188.1013 -23.0000
396.9964 -188.1013 -24.0000
396.9964 -188.1013 -25.0000
396.9964 -188.1013 -26.0000
396.9964 -188.1013 -27.0000
396.9964 -188.1013 -28.0000
396.9964 -188.1013 -29.0000
396.9964 -188.1013 -30.0000
396.9964 -188.1013 -31.0000
396.9964 -188.1013 -32.0000
-201.0430 95.2564 -83.0000
-201.0430 95.2564 -84.0000
-201.0430 95.2564 -85.0000
-198.4982 94.0507 -86.0000
-198.4982 94.0507 -87.0000
-201.0430 95.2564 -88.0000
-201.0430 95.2564 -89.0000
-221.4018 104.9026 -90.0000
-201.0430 95.2564 -91.0000
-201.0430 95.2564 -92.0000
-203.5879 96.4622 -93.0000
-203.5879 96.4622 -94.0000
-132.3321 62.7004 -95.0000
-203.5879 96.4622 -96.0000
-203.5879 96.4622 -97.0000
-203.5879 96.4622 -98.0000
-203.5879 96.4622 -99.0000
-203.5879 96.4622 -100.0000
-203.5879 96.4622 -101.0000
-203.5879 96.4622 -102.0000
-203.5879 96.4622 -103.0000
-203.5879 96.4622 -104.0000
-203.5879 96.4622 -105.0000
-203.5879 96.4622 -106.0000
-203.5879 96.4622 -107.0000
-203.5879 96.4622 -108.0000
-203.5879 96.4622 -109.0000
-203.5879 96.4622 -110.0000
-203.5879 96.4622 -111.0000
-203.5879 96.4622 -112.0000
-201.0430 95.2564 -113.0000
-201.0430 95.2564 -114.0000
-201.0430 95.2564 -115.0000
-201.0430 95.2564 -116.0000
-201.0430 95.2564 -117.0000
-201.0430 95.2564 -118.0000
-201.0430 95.2564 -119.0000
404.9282 -170.3567 -23.0000
404.9282 -170.3567 -24.0000
404.9282 -170.3567 -25.0000
404.9282 -170.3567 -26.0000
404.9282 -170.3567 -27.0000
404.9282 -170.3567 -28.0000
404.9282 -170.3567 -29.0000
404.9282 -170.3567 -30.0000
404.9282 -170.3567 -31.0000
404.9282 -170.3567 -32.0000
-202.4641 85.1783 -82.0000
-199.8684 84.0863 -83.0000
-199.8684 84.0863 -84.0000
-199.8684 84.0863 -85.0000
-199.8684 84.0863 -86.0000
-199.8684 84.0863 -87.0000
-199.8684 84.0863 -88.0000
-231.0167 97.1907 -89.0000
-202.4641 85.1783 -90.0000
-202.4641 85.1783 -91.0000
-202.4641 85.1783 -92.0000
-202.4641 85.1783 -93.0000
-202.4641 85.1783 -94.0000
-119.4019 50.2334 -95.0000
-147.9545 62.2457 -96.0000
-202.4641 85.1783 -97.0000
-202.4641 85.1783 -98.0000
-205.0598 86.2704 -99.0000
-205.0598 86.2704 -100.0000
-205.0598 86.2704 -101.0000
-205.0598 86.2704 -102.0000
-205.0598 86.2704 -103.0000
-205.0598 86.2704 -104.0000
-202.4641 85.1783 -105.0000
-202.4641 85.1783 -106.0000
-202.4641 85.1783 -107.0000
-202.4641 85.1783 -108.0000
-202.4641 85.1783 -109.0000
-202.4641 85.1783 -110.0000
-202.4641 85.1783 -111.0000
-202.4641 85.1783 -112.0000
-202.4641 85.1783 -113.0000
-202.4641 85.1783 -114.0000
-202.4641 85.1783 -115.0000
-199.8684 84.0863 -116.0000
-199.8684 84.0863 -117.0000
-199.8684 84.0863 -118.0000
-199.8684 84.0863 -119.0000
412.0673 -152.2787 -24.0000
412.0673 -152.2787 -25.0000
412.0673 -152.2787 -26.0000
412.0673 -152.2787 -27.0000
412.0673 -152.2787 -28.0000
412.0673 -152.2787 -29.0000
412.0673 -152.2787 -30.0000
412.0673 -152.2787 -31.0000
-200.7507 74.1870 -83.0000
-200.7507 74.1870 -84.0000
-200.7507 74.1870 -85.0000
-200.7507 74.1870 -86.0000
-200.7507 74.1870 -87.0000
-229.8067 84.9246 -88.0000
-216.5995 80.0439 -89.0000
-200.7507 74.1870 -90.0000
-200.7507 74.1870 -91.0000
-203.3922 75.1632 -92.0000
-203.3922 75.1632 -93.0000
-203.3922 75.1632 -94.0000
-145.2801 53.6880 -95.0000
-116.2241 42.9504 -96.0000
-203.3922 75.1632 -97.0000
-203.3922 75.1632 -98.0000
-203.3922 75.1632 -99.0000
-203.3922 75.1632 -100.0000
-203.3922 75.1632 -101.0000
-203.3922 75.1632 -102.0000
-203.3922 75.1632 -103.0000
-203.3922 75.1632 -104.0000
-203.3922 75.1632 -105.0000
-203.3922 75.1632 -106.0000
-203.3922 75.1632 -107.0000
-203.3922 75.1632 -108.0000
-203.3922 75.1632 -109.0000
-203.3922 75.1632 -110.0000
-203.3922 75.1632 -111.0000
-203.3922 75.1632 -112.0000
-203.3922 75.1632 -113.0000
-200.7507 74.1870 -114.0000
-200.7507 74.1870 -115.0000
-200.7507 74.1870 -116.0000
-203.3922 75.1632 -117.0000
-200.7507 74.1870 -118.0000
-200.7507 74.1870 -119.0000
418.3997 -133.9025 -24.0000
418.3997 -133.9025 -25.0000
418.3997 -133.9025 -26.0000
418.3997 -133.9025 -27.0000
418.3997 -133.9025 -28.0000
418.3997 -133.9025 -29.0000
418.3997 -133.9025 -30.0000
418.3997 -133.9025 -31.0000
-201.1537 64.3762 -83.0000
-201.1537 64.3762 -84.0000
-201.1537 64.3762 -85.0000
-201.1537 64.3762 -86.0000
-225.2922 72.1013 -87.0000
-238.7024 76.3931 -88.0000
-203.8358 65.2345 -89.0000
-203.8358 65.2345 -90.0000
-203.8358 65.2345 -91.0000
-203.8358 65.2345 -92.0000
-203.8358 65.2345 -93.0000
-206.5178 66.0929 -94.0000
-206.5178 66.0929 -95.0000
-163.6050 52.3593 -96.0000
-206.5178 66.0929 -97.0000
-206.5178 66.0929 -98.0000
-206.5178 66.0929 -99.0000
-206.5178 66.0929 -100.0000
-206.5178 66.0929 -101.0000
-206.5178 66.0929 -102.0000
-206.5178 66.0929 -103.0000
-206.5178 66.0929 -104.0000
-206.5178 66.0929 -105.0000
-206.5178 66.0929 -106.0000
-206.5178 66.0929 -107.0000
-206.5178 66.0929 -108.0000
-206.5178 66.0929 -109.0000
-203.8358 65.2345 -110.0000
-203.8358 65.2345 -111.0000
-203.8358 65.2345 -112.0000
-203.8358 65.2345 -113.0000
-203.8358 65.2345 -114.0000
-201.1537 64.3762 -115.0000
-203.8358 65.2345 -116.0000
-203.8358 65.2345 -117.0000
-201.1537 64.3762 -118.0000
-201.1537 64.3762 -119.0000
423.9132 -115.2642 -27.0000
423.9132 -115.2642 -28.0000
423.9132 -115.2642 -29.0000
423.9132 -115.2642 -30.0000
-203.8044 55.4155 -83.0000
-203.8044 55.4155 -84.0000
-203.8044 55.4155 -85.0000
-201.0870 54.6766 -86.0000
-244.5653 66.4986 -87.0000
-201.0870 54.6766 -88.0000
-201.0870 54.6766 -89.0000
-203.8044 55.4155 -90.0000
-203.8044 55.4155 -91.0000
-203.8044 55.4155 -92.0000
-206.5218 56.1543 -93.0000
-206.5218 56.1543 -94.0000
-165.7609 45.0712 -95.0000
-122.2827 33.2493 -96.0000
-206.5218 56.1543 -97.0000
-206.5218 56.1543 -98.0000
-206.5218 56.1543 -99.0000
-206.5218 56.1543 -100.0000
-206.5218 56.1543 -101.0000
-206.5218 56.1543 -102.0000
-206.5218 56.1543 -103.0000
-206.5218 56.1543 -104.0000
-206.5218 56.1543 -105.0000
-206.5218 56.1543 -106.0000
-206.5218 56.1543 -107.0000
-206.5218 56.1543 -108.0000
-206.5218 56.1543 -109.0000
-206.5218 56.1543 -110.0000
-203.8044 55.4155 -111.0000
-203.8044 55.4155 -112.0000
-203.8044 55.4155 -113.0000
-203.8044 55.4155 -114.0000
-203.8044 55.4155 -115.0000
-203.8044 55.4155 -116.0000
-203.8044 55.4155 -117.0000
-203.8044 55.4155 -118.0000
-203.8044 55.4155 -119.0000
428.5968 -96.4003 -27.0000
428.5968 -96.4003 -28.0000
428.5968 -96.4003 -29.0000
428.5968 -96.4003 -30.0000
-206.0561 46.3463 -84.0000
-203.3087 45.7284 -85.0000
-250.0148 56.2335 -86.0000
-239.0251 53.7617 -87.0000
-203.3087 45.7284 -88.0000
-203.3087 45.7284 -89.0000
-203.3087 45.7284 -90.0000
-206.0561 46.3463 -91.0000
-206.0561 46.3463 -92.0000
-206.0561 46.3463 -93.0000
-206.0561 46.3463 -94.0000
-159.3501 35.8411 -95.0000
-142.8656 32.1334 -96.0000
-208.8036 46.9643 -97.0000
-208.8036 46.9643 -98.0000
-208.8036 46.9643 -99.0000
-208.8036 46.9643 -100.0000
-208.8036 46.9643 -101.0000
-208.8036 46.9643 -102.0000
-208.8036 46.9643 -103.0000
-208.8036 46.9643 -104.0000
-208.8036 46.9643 -105.0000
-208.8036 46.9643 -106.0000
-208.8036 46.9643 -107.0000
-208.8036 46.9643 -108.0000
-208.8036 46.9643 -109.0000
-206.0561 46.3463 -110.0000
-206.0561 46.3463 -111.0000
-206.0561 46.3463 -112.0000
-206.0561 46.3463 -113.0000
-206.0561 46.3463 -114.0000
-206.0561 46.3463 -115.0000
-206.0561 46.3463 -116.0000
-206.0561 46.3463 -117.0000
-206.0561 46.3463 -118.0000
-206.0561 46.3463 -119.0000
432.4414 -77.3477 -27.0000
432.4414 -77.3477 -28.0000
432.4414 -77.3477 -29.0000
432.4414 -77.3477 -30.0000
-207.9045 37.1864 -84.0000
-207.9045 37.1864 -85.0000
-271.6619 48.5902 -86.0000
-255.0296 45.6153 -87.0000
-205.1325 36.6906 -88.0000
-205.1325 36.6906 -89.0000
-207.9045 37.1864 -90.0000
-207.9045 37.1864 -91.0000
-224.5369 40.1613 -92.0000
-207.9045 37.1864 -93.0000
-207.9045 37.1864 -94.0000
-135.8309 24.2951 -95.0000
-135.8309 24.2951 -96.0000
-207.9045 37.1864 -97.0000
-207.9045 37.1864 -98.0000
-207.9045 37.1864 -99.0000
-207.9045 37.1864 -100.0000
-207.9045 37.1864 -101.0000
-207.9045 37.1864 -102.0000
-207.9045 37.1864 -103.0000
-207.9045 37.1864 -104.0000
-207.9045 37.1864 -105.0000
-207.9045 37.1864 -106.0000
-207.9045 37.1864 -107.0000
-207.9045 37.1864 -108.0000
-207.9045 37.1864 -109.0000
-210.6766 37.6822 -110.0000
-207.9045 37.1864 -111.0000
-207.9045 37.1864 -112.0000
-207.9045 37.1864 -113.0000
-207.9045 37.1864 -114.0000
-207.9045 37.1864 -115.0000
-207.9045 37.1864 -116.0000
-207.9045 37.1864 -117.0000
-207.9045 37.1864 -118.0000
-207.9045 37.1864 -119.0000
435.4395 -58.1436 -27.0000
435.4395 -58.1436 -28.0000
435.4395 -58.1436 -29.0000
435.4395 -58.1436 -30.0000
-209.3459 27.9536 -84.0000
-267.9627 35.7807 -85.0000
-293.0843 39.1351 -86.0000
-281.9192 37.6442 -87.0000
-262.3802 35.0352 -88.0000
-245.6325 32.7989 -89.0000
-217.7197 29.0718 -90.0000
-273.5453 36.5261 -91.0000
-290.2930 38.7624 -92.0000
-270.7541 36.1534 -93.0000
-209.3459 27.9536 -94.0000
-139.5639 18.6358 -95.0000
-156.3116 20.8721 -96.0000
-209.3459 27.9536 -98.0000
-212.1372 28.3264 -108.0000
-209.3459 27.9536 -109.0000
-209.3459 27.9536 -110.0000
-209.3459 27.9536 -111.0000
-209.3459 27.9536 -112.0000
-209.3459 27.9536 -113.0000
-209.3459 27.9536 -114.0000
-209.3459 27.9536 -115.0000
-209.3459 27.9536 -116.0000
-209.3459 27.9536 -117.0000
-209.3459 27.9536 -118.0000
-209.3459 27.9536 -119.0000
437.5852 -38.8258 -27.0000
437.5852 -38.8258 -28.0000
437.5852 -38.8258 -29.0000
437.5852 -38.8258 -30.0000
-210.3775 18.6662 -84.0000
-277.6983 24.6394 -85.0000
-286.1134 25.3861 -86.0000
-277.6983 24.6394 -87.0000
-263.6731 23.3950 -88.0000
-249.6479 22.1506 -89.0000
-230.0127 20.4084 -90.0000
-266.4781 23.6439 -91.0000
-252.4530 22.3995 -92.0000
-190.7422 16.9241 -93.0000
-129.0315 11.4486 -95.0000
-213.1825 18.9151 -108.0000
-213.1825 18.9151 -109.0000
-213.1825 18.9151 -110.0000
-213.1825 18.9151 -111.0000
-213.1825 18.9151 -112.0000
-213.1825 18.9151 -113.0000
-210.3775 18.6662 -114.0000
-210.3775 18.6662 -115.0000
-210.3775 18.6662 -116.0000
-210.3775 18.6662 -117.0000
-213.1825 18.9151 -118.0000
-213.1825 18.9151 -119.0000
438.8743 -19.4319 -27.0000
438.8743 -19.4319 -28.0000
438.8743 -19.4319 -29.0000
438.8743 -19.4319 -30.0000
-213.8105 9.4668 -84.0000
-213.8105 9.4668 -85.0000
-210.9972 9.3423 -86.0000
-210.9972 9.3423 -87.0000
-210.9972 9.3423 -88.0000
-239.1302 10.5879 -89.0000
-230.6903 10.2142 -90.0000
-219.4371 9.7159 -91.0000
-199.7441 8.8440 -92.0000
-185.6776 8.2212 -93.0000
-174.4244 7.7229 -94.0000
-213.8105 9.4668 -109.0000
-213.8105 9.4668 -110.0000
-213.8105 9.4668 -111.0000
-213.8105 9.4668 -112.0000
-213.8105 9.4668 -113.0000
-213.8105 9.4668 -114.0000
-213.8105 9.4668 -115.0000
-213.8105 9.4668 -116.0000
-213.8105 9.4668 -117.0000
-213.8105 9.4668 -118.0000
-213.8105 9.4668 -119.0000
439.3043 0.0000 -27.0000
439.3043 0.0000 -28.0000
439.3043 0.0000 -29.0000
439.3043 0.0000 -30.0000
-216.8361 0.0000 -84.0000
-214.0200 0.0000 -85.0000
-214.0200 0.0000 -86.0000
-214.0200 0.0000 -87.0000
-214.0200 0.0000 -88.0000
-214.0200 0.0000 -89.0000
-214.0200 0.0000 -90.0000
-214.0200 0.0000 -91.0000
-214.0200 0.0000 -92.0000
-191.4916 0.0000 -93.0000
-183.0434 0.0000 -94.0000
-216.8361 0.0000 -109.0000
-216.8361 0.0000 -110.0000
-216.8361 0.0000 -111.0000
-216.8361 0.0000 -112.0000
-216.8361 0.0000 -113.0000
-216.8361 0.0000 -114.0000
-216.8361 0.0000 -115.0000
-216.8361 0.0000 -116.0000
-216.8361 0.0000 -117.0000
-216.8361 0.0000 -118.0000
-216.8361 0.0000 -119.0000
438.8743 19.4319 -27.0000
438.8743 19.4319 -28.0000
438.8743 19.4319 -29.0000
438.8743 19.4319 -30.0000
-216.6238 -9.5914 -85.0000
-216.6238 -9.5914 -86.0000
-216.6238 -9.5914 -87.0000
-216.6238 -9.5914 -88.0000
-216.6238 -9.5914 -89.0000
-216.6238 -9.5914 -90.0000
-216.6238 -9.5914 -91.0000
-216.6238 -9.5914 -92.0000
-210.9972 -9.3422 -93.0000
-191.3042 -8.4703 -94.0000
-219.4371 -9.7159 -110.0000
-219.4371 -9.7159 -111.0000
-219.4371 -9.7159 -112.0000
-219.4371 -9.7159 -113.0000
-216.6238 -9.5914 -114.0000
-216.6238 -9.5914 -115.0000
-216.6238 -9.5914 -116.0000
-216.6238 -9.5914 -117.0000
-219.4371 -9.7159 -118.0000
-219.4371 -9.7159 -119.0000
437.5852 38.8258 -27.0000
437.5852 38.8258 -28.0000
437.5852 38.8258 -29.0000
437.5852 38.8258 -30.0000
-218.7926 -19.4129 -85.0000
-218.7926 -19.4129 -86.0000
-218.7926 -19.4129 -87.0000
