4.7783 6.9670 -8.0000
4.7783 6.9670 -9.0000
6.3711 9.2893 -10.0000
6.3711 9.2893 -11.0000
6.3711 9.2893 -12.0000
6.3711 9.2893 -13.0000
6.3711 9.2893 -14.0000
6.3711 9.2893 -15.0000
6.3711 9.2893 -16.0000
6.3711 9.2893 -17.0000
12.7422 18.5786 -18.0000
14.3350 20.9010 -19.0000
15.9278 23.2233 -20.0000
19.1133 27.8679 -21.0000
19.1133 27.8679 -22.0000
19.1133 27.8679 -23.0000
19.1133 27.8679 -24.0000
20.7061 30.1903 -25.0000
20.7061 30.1903 -26.0000
20.7061 30.1903 -27.0000
20.7061 30.1903 -28.0000
20.7061 30.1903 -29.0000
20.7061 30.1903 -30.0000
20.7061 30.1903 -31.0000
20.7061 30.1903 -32.0000
20.7061 30.1903 -33.0000
20.7061 30.1903 -34.0000
20.7061 30.1903 -35.0000
20.7061 30.1903 -36.0000
20.7061 30.1903 -37.0000
20.7061 30.1903 -38.0000
20.7061 30.1903 -39.0000
20.7061 30.1903 -40.0000
20.7061 30.1903 -41.0000
20.7061 30.1903 -42.0000
20.7061 30.1903 -43.0000
20.7061 30.1903 -44.0000
20.7061 30.1903 -45.0000
20.7061 30.1903 -46.0000
20.7061 30.1903 -47.0000
20.7061 30.1903 -48.0000
20.7061 30.1903 -49.0000
20.7061 30.1903 -50.0000
22.2989 32.5126 -51.0000
22.2989 32.5126 -52.0000
23.8917 34.8349 -53.0000
25.4845 37.1573 -54.0000
22.2989 32.5126 -55.0000
22.2989 32.5126 -56.0000
23.8917 34.8349 -57.0000
23.8917 34.8349 -58.0000
25.4845 37.1573 -59.0000
23.8917 34.8349 -60.0000
23.8917 34.8349 -61.0000
23.8917 34.8349 -62.0000
23.8917 34.8349 -63.0000
23.8917 34.8349 -64.0000
23.8917 34.8349 -65.0000
23.8917 34.8349 -66.0000
23.8917 34.8349 -67.0000
23.8917 34.8349 -68.0000
23.8917 34.8349 -69.0000
23.8917 34.8349 -70.0000
23.8917 34.8349 -71.0000
23.8917 34.8349 -72.0000
23.8917 34.8349 -73.0000
23.8917 34.8349 -74.0000
23.8917 34.8349 -75.0000
23.8917 34.8349 -76.0000
23.8917 34.8349 -77.0000
23.8917 34.8349 -78.0000
23.8917 34.8349 -79.0000
23.8917 34.8349 -80.0000
23.8917 34.8349 -81.0000
23.8917 34.8349 -82.0000
23.8917 34.8349 -83.0000
23.8917 34.8349 -84.0000
23.8917 34.8349 -85.0000
23.8917 34.8349 -86.0000
23.8917 34.8349 -87.0000
23.8917 34.8349 -88.0000
23.8917 34.8349 -89.0000
23.8917 34.8349 -90.0000
25.4845 37.1573 -91.0000
25.4845 37.1573 -92.0000
25.4845 37.1573 -93.0000
25.4845 37.1573 -94.0000
25.4845 37.1573 -95.0000
25.4845 37.1573 -96.0000
25.4845 37.1573 -97.0000
25.4845 37.1573 -98.0000
25.4845 37.1573 -99.0000
25.4845 37.1573 -100.0000
1.5015 2.3823 21.0000
1.5015 2.3823 20.0000
3.0031 4.7647 19.0000
3.0031 4.7647 18.0000
3.0031 4.7647 17.0000
3.0031 4.7647 16.0000
1.5015 2.3823 15.0000
1.5015 2.3823 14.0000
1.5015 2.3823 13.0000
3.0031 4.7647 12.0000
3.0031 4.7647 11.0000
3.0031 4.7647 10.0000
3.0031 4.7647 9.0000
3.0031 4.7647 8.0000
4.5046 7.1470 7.0000
4.5046 7.1470 6.0000
4.5046 7.1470 5.0000
4.5046 7.1470 4.0000
4.5046 7.1470 3.0000
4.5046 7.1470 2.0000
4.5046 7.1470 1.0000
4.5046 7.1470 0.0000
4.5046 7.1470 -1.0000
4.5046 7.1470 -2.0000
4.5046 7.1470 -3.0000
4.5046 7.1470 -4.0000
4.5046 7.1470 -5.0000
4.5046 7.1470 -6.0000
4.5046 7.1470 -7.0000
4.5046 7.1470 -8.0000
6.0061 9.5294 -9.0000
6.0061 9.5294 -10.0000
6.0061 9.5294 -11.0000
6.0061 9.5294 -12.0000
6.0061 9.5294 -13.0000
6.0061 9.5294 -14.0000
6.0061 9.5294 -15.0000
6.0061 9.5294 -16.0000
6.0061 9.5294 -17.0000
10.5107 16.6764 -18.0000
13.5138 21.4411 -19.0000
13.5138 21.4411 -20.0000
18.0184 28.5881 -21.0000
18.0184 28.5881 -22.0000
18.0184 28.5881 -23.0000
18.0184 28.5881 -24.0000
18.0184 28.5881 -25.0000
18.0184 28.5881 -26.0000
18.0184 28.5881 -27.0000
18.0184 28.5881 -28.0000
19.5199 30.9705 -29.0000
19.5199 30.9705 -30.0000
19.5199 30.9705 -31.0000
19.5199 30.9705 -32.0000
19.5199 30.9705 -33.0000
19.5199 30.9705 -34.0000
19.5199 30.9705 -35.0000
19.5199 30.9705 -36.0000
19.5199 30.9705 -37.0000
19.5199 30.9705 -38.0000
19.5199 30.9705 -39.0000
19.5199 30.9705 -40.0000
19.5199 30.9705 -41.0000
19.5199 30.9705 -42.0000
19.5199 30.9705 -43.0000
19.5199 30.9705 -44.0000
19.5199 30.9705 -45.0000
19.5199 30.9705 -46.0000
19.5199 30.9705 -47.0000
19.5199 30.9705 -48.0000
19.5199 30.9705 -49.0000
19.5199 30.9705 -50.0000
19.5199 30.9705 -51.0000
19.5199 30.9705 -52.0000
24.0245 38.1175 -53.0000
24.0245 38.1175 -54.0000
21.0215 33.3528 -55.0000
21.0215 33.3528 -56.0000
21.0215 33.3528 -57.0000
22.5230 35.7351 -58.0000
21.0215 33.3528 -59.0000
21.0215 33.3528 -60.0000
21.0215 33.3528 -61.0000
21.0215 33.3528 -62.0000
21.0215 33.3528 -63.0000
22.5230 35.7351 -64.0000
22.5230 35.7351 -65.0000
22.5230 35.7351 -66.0000
22.5230 35.7351 -67.0000
22.5230 35.7351 -68.0000
22.5230 35.7351 -69.0000
22.5230 35.7351 -70.0000
22.5230 35.7351 -71.0000
22.5230 35.7351 -72.0000
22.5230 35.7351 -73.0000
22.5230 35.7351 -74.0000
22.5230 35.7351 -75.0000
22.5230 35.7351 -76.0000
22.5230 35.7351 -77.0000
22.5230 35.7351 -78.0000
22.5230 35.7351 -79.0000
22.5230 35.7351 -80.0000
22.5230 35.7351 -81.0000
22.5230 35.7351 -82.0000
22.5230 35.7351 -83.0000
22.5230 35.7351 -84.0000
22.5230 35.7351 -85.0000
22.5230 35.7351 -86.0000
22.5230 35.7351 -87.0000
22.5230 35.7351 -88.0000
22.5230 35.7351 -89.0000
22.5230 35.7351 -90.0000
22.5230 35.7351 -91.0000
22.5230 35.7351 -92.0000
22.5230 35.7351 -93.0000
24.0245 38.1175 -94.0000
22.5230 35.7351 -95.0000
24.0245 38.1175 -96.0000
24.0245 38.1175 -97.0000
24.0245 38.1175 -98.0000
24.0245 38.1175 -99.0000
24.0245 38.1175 -100.0000
24.0245 38.1175 -101.0000
1.4080 2.4388 21.0000
2.8161 4.8775 20.0000
2.8161 4.8775 19.0000
2.8161 4.8775 18.0000
1.4080 2.4388 17.0000
1.4080 2.4388 16.0000
1.4080 2.4388 15.0000
1.4080 2.4388 14.0000
1.4080 2.4388 13.0000
2.8161 4.8775 12.0000
2.8161 4.8775 11.0000
2.8161 4.8775 10.0000
2.8161 4.8775 9.0000
2.8161 4.8775 8.0000
4.2241 7.3163 7.0000
4.2241 7.3163 6.0000
4.2241 7.3163 5.0000
4.2241 7.3163 4.0000
4.2241 7.3163 3.0000
4.2241 7.3163 2.0000
4.2241 7.3163 1.0000
4.2241 7.3163 0.0000
4.2241 7.3163 -1.0000
4.2241 7.3163 -2.0000
4.2241 7.3163 -3.0000
4.2241 7.3163 -4.0000
4.2241 7.3163 -5.0000
4.2241 7.3163 -6.0000
4.2241 7.3163 -7.0000
4.2241 7.3163 -8.0000
4.2241 7.3163 -9.0000
5.6321 9.7551 -10.0000
5.6321 9.7551 -11.0000
5.6321 9.7551 -12.0000
5.6321 9.7551 -13.0000
5.6321 9.7551 -14.0000
5.6321 9.7551 -15.0000
5.6321 9.7551 -16.0000
5.6321 9.7551 -17.0000
9.8562 17.0714 -18.0000
12.6722 21.9490 -19.0000
12.6722 21.9490 -20.0000
15.4883 26.8265 -21.0000
15.4883 26.8265 -22.0000
15.4883 26.8265 -23.0000
15.4883 26.8265 -24.0000
15.4883 26.8265 -25.0000
15.4883 26.8265 -26.0000
15.4883 26.8265 -27.0000
16.8963 29.2653 -28.0000
16.8963 29.2653 -29.0000
16.8963 29.2653 -30.0000
18.3043 31.7041 -31.0000
16.8963 29.2653 -32.0000
18.3043 31.7041 -33.0000
18.3043 31.7041 -34.0000
18.3043 31.7041 -35.0000
18.3043 31.7041 -36.0000
18.3043 31.7041 -37.0000
18.3043 31.7041 -38.0000
18.3043 31.7041 -39.0000
18.3043 31.7041 -40.0000
18.3043 31.7041 -41.0000
18.3043 31.7041 -42.0000
18.3043 31.7041 -43.0000
18.3043 31.7041 -44.0000
18.3043 31.7041 -45.0000
18.3043 31.7041 -46.0000
18.3043 31.7041 -47.0000
18.3043 31.7041 -48.0000
18.3043 31.7041 -49.0000
18.3043 31.7041 -50.0000
18.3043 31.7041 -51.0000
22.5284 39.0204 -52.0000
23.9365 41.4592 -53.0000
18.3043 31.7041 -54.0000
18.3043 31.7041 -55.0000
21.1204 36.5816 -56.0000
19.7124 34.1428 -57.0000
18.3043 31.7041 -58.0000
18.3043 31.7041 -59.0000
18.3043 31.7041 -60.0000
18.3043 31.7041 -61.0000
19.7124 34.1428 -62.0000
19.7124 34.1428 -63.0000
19.7124 34.1428 -64.0000
19.7124 34.1428 -65.0000
19.7124 34.1428 -66.0000
19.7124 34.1428 -67.0000
19.7124 34.1428 -68.0000
21.1204 36.5816 -69.0000
21.1204 36.5816 -70.0000
21.1204 36.5816 -71.0000
21.1204 36.5816 -72.0000
21.1204 36.5816 -73.0000
21.1204 36.5816 -74.0000
21.1204 36.5816 -75.0000
21.1204 36.5816 -76.0000
21.1204 36.5816 -77.0000
21.1204 36.5816 -78.0000
21.1204 36.5816 -79.0000
21.1204 36.5816 -80.0000
21.1204 36.5816 -81.0000
21.1204 36.5816 -82.0000
21.1204 36.5816 -83.0000
21.1204 36.5816 -84.0000
21.1204 36.5816 -85.0000
21.1204 36.5816 -86.0000
21.1204 36.5816 -87.0000
21.1204 36.5816 -88.0000
21.1204 36.5816 -89.0000
21.1204 36.5816 -90.0000
21.1204 36.5816 -91.0000
21.1204 36.5816 -92.0000
21.1204 36.5816 -93.0000
21.1204 36.5816 -94.0000
21.1204 36.5816 -95.0000
21.1204 36.5816 -96.0000
22.5284 39.0204 -97.0000
22.5284 39.0204 -98.0000
22.5284 39.0204 -99.0000
22.5284 39.0204 -100.0000
1.3124 2.4915 21.0000
2.6248 4.9831 20.0000
2.6248 4.9831 19.0000
2.6248 4.9831 18.0000
2.6248 4.9831 17.0000
1.3124 2.4915 16.0000
1.3124 2.4915 15.0000
2.6248 4.9831 9.0000
2.6248 4.9831 8.0000
3.9372 7.4746 7.0000
3.9372 7.4746 6.0000
3.9372 7.4746 5.0000
3.9372 7.4746 4.0000
3.9372 7.4746 3.0000
3.9372 7.4746 2.0000
3.9372 7.4746 1.0000
3.9372 7.4746 0.0000
3.9372 7.4746 -1.0000
3.9372 7.4746 -2.0000
3.9372 7.4746 -3.0000
3.9372 7.4746 -4.0000
3.9372 7.4746 -5.0000
3.9372 7.4746 -6.0000
3.9372 7.4746 -7.0000
3.9372 7.4746 -8.0000
3.9372 7.4746 -9.0000
3.9372 7.4746 -10.0000
3.9372 7.4746 -11.0000
3.9372 7.4746 -12.0000
3.9372 7.4746 -13.0000
5.2496 9.9661 -14.0000
5.2496 9.9661 -15.0000
5.2496 9.9661 -16.0000
5.2496 9.9661 -17.0000
9.1868 17.4408 -18.0000
9.1868 17.4408 -19.0000
10.4992 19.9323 -20.0000
13.1240 24.9154 -21.0000
14.4364 27.4069 -22.0000
14.4364 27.4069 -23.0000
14.4364 27.4069 -24.0000
14.4364 27.4069 -25.0000
14.4364 27.4069 -26.0000
14.4364 27.4069 -27.0000
14.4364 27.4069 -28.0000
14.4364 27.4069 -29.0000
14.4364 27.4069 -30.0000
14.4364 27.4069 -31.0000
15.7488 29.8984 -32.0000
15.7488 29.8984 -33.0000
15.7488 29.8984 -34.0000
15.7488 29.8984 -35.0000
15.7488 29.8984 -36.0000
15.7488 29.8984 -37.0000
17.0612 32.3900 -38.0000
17.0612 32.3900 -39.0000
17.0612 32.3900 -40.0000
17.0612 32.3900 -41.0000
17.0612 32.3900 -42.0000
17.0612 32.3900 -43.0000
17.0612 32.3900 -44.0000
17.0612 32.3900 -45.0000
17.0612 32.3900 -46.0000
17.0612 32.3900 -47.0000
17.0612 32.3900 -48.0000
17.0612 32.3900 -49.0000
17.0612 32.3900 -50.0000
20.9985 39.8646 -51.0000
20.9985 39.8646 -52.0000
17.0612 32.3900 -53.0000
17.0612 32.3900 -54.0000
17.0612 32.3900 -55.0000
19.6861 37.3730 -56.0000
17.0612 32.3900 -57.0000
17.0612 32.3900 -58.0000
17.0612 32.3900 -59.0000
17.0612 32.3900 -60.0000
17.0612 32.3900 -61.0000
17.0612 32.3900 -62.0000
17.0612 32.3900 -63.0000
17.0612 32.3900 -64.0000
17.0612 32.3900 -65.0000
17.0612 32.3900 -66.0000
17.0612 32.3900 -67.0000
17.0612 32.3900 -68.0000
18.3736 34.8815 -69.0000
18.3736 34.8815 -70.0000
18.3736 34.8815 -71.0000
18.3736 34.8815 -72.0000
18.3736 34.8815 -73.0000
19.6861 37.3730 -74.0000
19.6861 37.3730 -75.0000
19.6861 37.3730 -76.0000
19.6861 37.3730 -77.0000
19.6861 37.3730 -78.0000
19.6861 37.3730 -79.0000
19.6861 37.3730 -80.0000
19.6861 37.3730 -81.0000
19.6861 37.3730 -82.0000
19.6861 37.3730 -83.0000
19.6861 37.3730 -84.0000
19.6861 37.3730 -85.0000
19.6861 37.3730 -86.0000
19.6861 37.3730 -87.0000
19.6861 37.3730 -88.0000
19.6861 37.3730 -89.0000
19.6861 37.3730 -90.0000
19.6861 37.3730 -91.0000
19.6861 37.3730 -92.0000
19.6861 37.3730 -93.0000
19.6861 37.3730 -94.0000
19.6861 37.3730 -95.0000
19.6861 37.3730 -96.0000
19.6861 37.3730 -97.0000
20.9985 39.8646 -98.0000
104.9923 199.3229 -117.0000
2.4296 5.0811 22.0000
2.4296 5.0811 21.0000
2.4296 5.0811 20.0000
2.4296 5.0811 19.0000
2.4296 5.0811 18.0000
2.4296 5.0811 17.0000
2.4296 5.0811 16.0000
1.2148 2.5406 15.0000
2.4296 5.0811 8.0000
3.6444 7.6217 7.0000
3.6444 7.6217 6.0000
3.6444 7.6217 5.0000
3.6444 7.6217 4.0000
3.6444 7.6217 3.0000
3.6444 7.6217 2.0000
3.6444 7.6217 1.0000
3.6444 7.6217 0.0000
3.6444 7.6217 -1.0000
3.6444 7.6217 -2.0000
3.6444 7.6217 -3.0000
3.6444 7.6217 -4.0000
3.6444 7.6217 -5.0000
3.6444 7.6217 -6.0000
3.6444 7.6217 -7.0000
3.6444 7.6217 -8.0000
3.6444 7.6217 -9.0000
3.6444 7.6217 -10.0000
3.6444 7.6217 -11.0000
3.6444 7.6217 -12.0000
3.6444 7.6217 -13.0000
3.6444 7.6217 -14.0000
3.6444 7.6217 -15.0000
3.6444 7.6217 -16.0000
4.8592 10.1622 -17.0000
8.5036 17.7839 -18.0000
8.5036 17.7839 -19.0000
9.7184 20.3244 -20.0000
10.9333 22.8650 -21.0000
13.3629 27.9461 -22.0000
13.3629 27.9461 -23.0000
13.3629 27.9461 -24.0000
13.3629 27.9461 -25.0000
13.3629 27.9461 -26.0000
13.3629 27.9461 -27.0000
13.3629 27.9461 -28.0000
13.3629 27.9461 -29.0000
13.3629 27.9461 -30.0000
13.3629 27.9461 -31.0000
13.3629 27.9461 -32.0000
13.3629 27.9461 -33.0000
13.3629 27.9461 -34.0000
14.5777 30.4866 -35.0000
14.5777 30.4866 -36.0000
14.5777 30.4866 -37.0000
14.5777 30.4866 -38.0000
14.5777 30.4866 -39.0000
14.5777 30.4866 -40.0000
14.5777 30.4866 -41.0000
14.5777 30.4866 -42.0000
15.7925 33.0272 -43.0000
15.7925 33.0272 -44.0000
15.7925 33.0272 -45.0000
15.7925 33.0272 -46.0000
15.7925 33.0272 -47.0000
15.7925 33.0272 -48.0000
15.7925 33.0272 -49.0000
15.7925 33.0272 -50.0000
19.4369 40.6488 -51.0000
18.2221 38.1083 -52.0000
15.7925 33.0272 -53.0000
15.7925 33.0272 -54.0000
17.0073 35.5677 -55.0000
17.0073 35.5677 -56.0000
15.7925 33.0272 -57.0000
15.7925 33.0272 -58.0000
15.7925 33.0272 -59.0000
15.7925 33.0272 -60.0000
15.7925 33.0272 -61.0000
15.7925 33.0272 -62.0000
15.7925 33.0272 -63.0000
15.7925 33.0272 -64.0000
15.7925 33.0272 -65.0000
15.7925 33.0272 -66.0000
15.7925 33.0272 -67.0000
15.7925 33.0272 -68.0000
15.7925 33.0272 -69.0000
15.7925 33.0272 -70.0000
17.0073 35.5677 -71.0000
17.0073 35.5677 -72.0000
17.0073 35.5677 -73.0000
17.0073 35.5677 -74.0000
17.0073 35.5677 -75.0000
17.0073 35.5677 -76.0000
18.2221 38.1083 -77.0000
18.2221 38.1083 -78.0000
18.2221 38.1083 -79.0000
18.2221 38.1083 -80.0000
18.2221 38.1083 -81.0000
18.2221 38.1083 -82.0000
18.2221 38.1083 -83.0000
18.2221 38.1083 -84.0000
18.2221 38.1083 -85.0000
18.2221 38.1083 -86.0000
18.2221 38.1083 -87.0000
18.2221 38.1083 -88.0000
18.2221 38.1083 -89.0000
18.2221 38.1083 -90.0000
18.2221 38.1083 -91.0000
18.2221 38.1083 -92.0000
18.2221 38.1083 -93.0000
18.2221 38.1083 -94.0000
18.2221 38.1083 -95.0000
18.2221 38.1083 -96.0000
18.2221 38.1083 -97.0000
18.2221 38.1083 -98.0000
2.2308 5.1715 22.0000
2.2308 5.1715 21.0000
2.2308 5.1715 20.0000
2.2308 5.1715 19.0000
2.2308 5.1715 18.0000
2.2308 5.1715 17.0000
1.1154 2.5857 16.0000
2.2308 5.1715 15.0000
2.2308 5.1715 8.0000
3.3461 7.7572 7.0000
2.2308 5.1715 6.0000
2.2308 5.1715 5.0000
2.2308 5.1715 4.0000
3.3461 7.7572 3.0000
3.3461 7.7572 2.0000
3.3461 7.7572 1.0000
3.3461 7.7572 0.0000
3.3461 7.7572 -1.0000
3.3461 7.7572 -2.0000
3.3461 7.7572 -3.0000
3.3461 7.7572 -4.0000
3.3461 7.7572 -5.0000
3.3461 7.7572 -6.0000
3.3461 7.7572 -7.0000
3.3461 7.7572 -8.0000
3.3461 7.7572 -9.0000
3.3461 7.7572 -10.0000
3.3461 7.7572 -11.0000
3.3461 7.7572 -12.0000
3.3461 7.7572 -13.0000
3.3461 7.7572 -14.0000
3.3461 7.7572 -15.0000
3.3461 7.7572 -16.0000
6.6923 15.5145 -17.0000
7.8077 18.1002 -18.0000
8.9231 20.6860 -19.0000
8.9231 20.6860 -20.0000
10.0384 23.2717 -21.0000
12.2692 28.4432 -22.0000
12.2692 28.4432 -23.0000
12.2692 28.4432 -24.0000
12.2692 28.4432 -25.0000
12.2692 28.4432 -26.0000
12.2692 28.4432 -27.0000
12.2692 28.4432 -28.0000
12.2692 28.4432 -29.0000
12.2692 28.4432 -30.0000
13.3846 31.0289 -31.0000
13.3846 31.0289 -32.0000
13.3846 31.0289 -33.0000
13.3846 31.0289 -34.0000
13.3846 31.0289 -35.0000
13.3846 31.0289 -36.0000
13.3846 31.0289 -37.0000
13.3846 31.0289 -38.0000
13.3846 31.0289 -39.0000
13.3846 31.0289 -40.0000
13.3846 31.0289 -41.0000
13.3846 31.0289 -42.0000
13.3846 31.0289 -43.0000
13.3846 31.0289 -44.0000
13.3846 31.0289 -45.0000
13.3846 31.0289 -46.0000
13.3846 31.0289 -47.0000
13.3846 31.0289 -48.0000
15.6153 36.2004 -49.0000
16.7307 38.7862 -50.0000
14.5000 33.6147 -51.0000
14.5000 33.6147 -52.0000
14.5000 33.6147 -53.0000
16.7307 38.7862 -54.0000
17.8461 41.3719 -55.0000
14.5000 33.6147 -56.0000
14.5000 33.6147 -57.0000
14.5000 33.6147 -58.0000
14.5000 33.6147 -59.0000
14.5000 33.6147 -60.0000
14.5000 33.6147 -61.0000
14.5000 33.6147 -62.0000
14.5000 33.6147 -63.0000
14.5000 33.6147 -64.0000
14.5000 33.6147 -65.0000
14.5000 33.6147 -66.0000
14.5000 33.6147 -67.0000
14.5000 33.6147 -68.0000
14.5000 33.6147 -69.0000
14.5000 33.6147 -70.0000
14.5000 33.6147 -71.0000
14.5000 33.6147 -72.0000
14.5000 33.6147 -73.0000
14.5000 33.6147 -74.0000
14.5000 33.6147 -75.0000
15.6153 36.2004 -76.0000
15.6153 36.2004 -77.0000
15.6153 36.2004 -78.0000
15.6153 36.2004 -79.0000
15.6153 36.2004 -80.0000
15.6153 36.2004 -81.0000
15.6153 36.2004 -82.0000
15.6153 36.2004 -83.0000
16.7307 38.7862 -84.0000
16.7307 38.7862 -85.0000
16.7307 38.7862 -86.0000
16.7307 38.7862 -87.0000
16.7307 38.7862 -88.0000
16.7307 38.7862 -89.0000
16.7307 38.7862 -90.0000
16.7307 38.7862 -91.0000
16.7307 38.7862 -92.0000
16.7307 38.7862 -93.0000
16.7307 38.7862 -94.0000
16.7307 38.7862 -95.0000
16.7307 38.7862 -96.0000
16.7307 38.7862 -97.0000
16.7307 38.7862 -98.0000
16.7307 38.7862 -99.0000
2.0286 5.2541 23.0000
2.0286 5.2541 22.0000
2.0286 5.2541 21.0000
2.0286 5.2541 20.0000
2.0286 5.2541 19.0000
-4.0571 -10.5082 18.0000
-6.0857 -15.7623 17.0000
-6.0857 -15.7623 16.0000
-7.1000 -18.3894 15.0000
-9.1285 -23.6435 14.0000
-13.1856 -34.1517 13.0000
-13.1856 -34.1517 12.0000
-13.1856 -34.1517 11.0000
-13.1856 -34.1517 10.0000
-5.0714 -13.1353 9.0000
2.0286 5.2541 8.0000
3.0428 7.8811 7.0000
2.0286 5.2541 6.0000
2.0286 5.2541 5.0000
2.0286 5.2541 4.0000
2.0286 5.2541 3.0000
3.0428 7.8811 2.0000
3.0428 7.8811 1.0000
3.0428 7.8811 0.0000
3.0428 7.8811 -1.0000
3.0428 7.8811 -2.0000
3.0428 7.8811 -3.0000
3.0428 7.8811 -4.0000
3.0428 7.8811 -5.0000
3.0428 7.8811 -6.0000
3.0428 7.8811 -7.0000
3.0428 7.8811 -8.0000
3.0428 7.8811 -9.0000
3.0428 7.8811 -10.0000
3.0428 7.8811 -11.0000
3.0428 7.8811 -12.0000
3.0428 7.8811 -13.0000
3.0428 7.8811 -14.0000
4.0571 10.5082 -15.0000
6.0857 15.7623 -16.0000
7.1000 18.3894 -17.0000
7.1000 18.3894 -18.0000
7.1000 18.3894 -19.0000
8.1142 21.0164 -20.0000
9.1285 23.6435 -21.0000
10.1428 26.2705 -22.0000
11.1571 28.8976 -23.0000
11.1571 28.8976 -24.0000
12.1714 31.5246 -25.0000
12.1714 31.5246 -26.0000
12.1714 31.5246 -27.0000
12.1714 31.5246 -28.0000
12.1714 31.5246 -29.0000
12.1714 31.5246 -30.0000
12.1714 31.5246 -31.0000
12.1714 31.5246 -32.0000
12.1714 31.5246 -33.0000
12.1714 31.5246 -34.0000
13.1856 34.1517 -35.0000
12.1714 31.5246 -36.0000
12.1714 31.5246 -37.0000
12.1714 31.5246 -38.0000
13.1856 34.1517 -39.0000
13.1856 34.1517 -40.0000
13.1856 34.1517 -41.0000
13.1856 34.1517 -42.0000
13.1856 34.1517 -43.0000
12.1714 31.5246 -44.0000
12.1714 31.5246 -45.0000
12.1714 31.5246 -46.0000
12.1714 31.5246 -47.0000
12.1714 31.5246 -48.0000
12.1714 31.5246 -49.0000
12.1714 31.5246 -50.0000
13.1856 34.1517 -51.0000
13.1856 34.1517 -52.0000
13.1856 34.1517 -53.0000
13.1856 34.1517 -54.0000
12.1714 31.5246 -55.0000
13.1856 34.1517 -56.0000
13.1856 34.1517 -57.0000
13.1856 34.1517 -58.0000
12.1714 31.5246 -59.0000
12.1714 31.5246 -60.0000
12.1714 31.5246 -61.0000
12.1714 31.5246 -62.0000
12.1714 31.5246 -63.0000
13.1856 34.1517 -64.0000
13.1856 34.1517 -65.0000
12.1714 31.5246 -66.0000
12.1714 31.5246 -67.0000
13.1856 34.1517 -68.0000
13.1856 34.1517 -69.0000
13.1856 34.1517 -70.0000
13.1856 34.1517 -71.0000
13.1856 34.1517 -72.0000
13.1856 34.1517 -73.0000
13.1856 34.1517 -74.0000
13.1856 34.1517 -75.0000
13.1856 34.1517 -76.0000
13.1856 34.1517 -77.0000
14.1999 36.7787 -78.0000
14.1999 36.7787 -79.0000
14.1999 36.7787 -80.0000
14.1999 36.7787 -81.0000
14.1999 36.7787 -82.0000
14.1999 36.7787 -83.0000
14.1999 36.7787 -84.0000
14.1999 36.7787 -85.0000
14.1999 36.7787 -86.0000
14.1999 36.7787 -87.0000
14.1999 36.7787 -88.0000
14.1999 36.7787 -89.0000
14.1999 36.7787 -90.0000
14.1999 36.7787 -91.0000
14.1999 36.7787 -92.0000
14.1999 36.7787 -93.0000
14.1999 36.7787 -94.0000
14.1999 36.7787 -95.0000
14.1999 36.7787 -96.0000
15.2142 39.4058 -97.0000
15.2142 39.4058 -98.0000
15.2142 39.4058 -99.0000
15.2142 39.4058 -100.0000
15.2142 39.4058 -101.0000
15.2142 39.4058 -102.0000
14.1999 36.7787 -103.0000
14.1999 36.7787 -104.0000
15.2142 39.4058 -105.0000
16.2285 42.0328 -106.0000
15.2142 39.4058 -107.0000
1.8233 5.3288 23.0000
1.8233 5.3288 22.0000
1.8233 5.3288 21.0000
-2.7350 -7.9932 20.0000
-5.4699 -15.9864 19.0000
-5.4699 -15.9864 18.0000
-5.4699 -15.9864 17.0000
-5.4699 -15.9864 16.0000
-6.3816 -18.6508 15.0000
-7.2932 -21.3152 14.0000
-11.8515 -34.6372 13.0000
-11.8515 -34.6372 12.0000
-11.8515 -34.6372 11.0000
-11.8515 -34.6372 10.0000
1.8233 5.3288 7.0000
2.7350 7.9932 6.0000
1.8233 5.3288 5.0000
1.8233 5.3288 4.0000
2.7350 7.9932 3.0000
2.7350 7.9932 2.0000
2.7350 7.9932 1.0000
2.7350 7.9932 0.0000
2.7350 7.9932 -1.0000
2.7350 7.9932 -2.0000
2.7350 7.9932 -3.0000
2.7350 7.9932 -4.0000
2.7350 7.9932 -5.0000
2.7350 7.9932 -6.0000
2.7350 7.9932 -7.0000
2.7350 7.9932 -8.0000
2.7350 7.9932 -9.0000
2.7350 7.9932 -10.0000
2.7350 7.9932 -11.0000
2.7350 7.9932 -12.0000
2.7350 7.9932 -13.0000
2.7350 7.9932 -14.0000
2.7350 7.9932 -15.0000
2.7350 7.9932 -16.0000
5.4699 15.9864 -17.0000
6.3816 18.6508 -18.0000
6.3816 18.6508 -19.0000
7.2932 21.3152 -20.0000
8.2049 23.9796 -21.0000
10.0282 29.3084 -22.0000
10.0282 29.3084 -23.0000
10.0282 29.3084 -24.0000
10.0282 29.3084 -25.0000
10.0282 29.3084 -26.0000
10.0282 29.3084 -27.0000
10.0282 29.3084 -28.0000
10.0282 29.3084 -29.0000
10.0282 29.3084 -30.0000
10.9398 31.9728 -31.0000
10.9398 31.9728 -32.0000
10.9398 31.9728 -33.0000
10.9398 31.9728 -34.0000
10.9398 31.9728 -35.0000
10.9398 31.9728 -36.0000
10.9398 31.9728 -37.0000
10.9398 31.9728 -38.0000
10.9398 31.9728 -39.0000
10.9398 31.9728 -40.0000
10.9398 31.9728 -41.0000
10.9398 31.9728 -42.0000
2.7350 7.9932 -43.0000
2.7350 7.9932 -44.0000
2.7350 7.9932 -45.0000
1.8233 5.3288 -46.0000
2.7350 7.9932 -47.0000
2.7350 7.9932 -48.0000
1.8233 5.3288 -49.0000
2.7350 7.9932 -50.0000
0.9117 2.6644 -51.0000
0.9117 2.6644 -52.0000
10.9398 31.9728 -53.0000
10.9398 31.9728 -54.0000
10.9398 31.9728 -55.0000
10.9398 31.9728 -56.0000
11.8515 34.6372 -57.0000
11.8515 34.6372 -58.0000
10.9398 31.9728 -59.0000
10.9398 31.9728 -60.0000
10.9398 31.9728 -61.0000
10.9398 31.9728 -62.0000
11.8515 34.6372 -63.0000
11.8515 34.6372 -64.0000
11.8515 34.6372 -65.0000
11.8515 34.6372 -66.0000
11.8515 34.6372 -67.0000
11.8515 34.6372 -68.0000
11.8515 34.6372 -69.0000
11.8515 34.6372 -70.0000
11.8515 34.6372 -71.0000
11.8515 34.6372 -72.0000
11.8515 34.6372 -73.0000
11.8515 34.6372 -74.0000
11.8515 34.6372 -75.0000
11.8515 34.6372 -76.0000
11.8515 34.6372 -77.0000
11.8515 34.6372 -78.0000
11.8515 34.6372 -79.0000
11.8515 34.6372 -80.0000
12.7631 37.3016 -81.0000
12.7631 37.3016 -82.0000
12.7631 37.3016 -83.0000
12.7631 37.3016 -84.0000
12.7631 37.3016 -85.0000
12.7631 37.3016 -86.0000
12.7631 37.3016 -87.0000
12.7631 37.3016 -88.0000
12.7631 37.3016 -89.0000
13.6748 39.9661 -90.0000
13.6748 39.9661 -91.0000
13.6748 39.9661 -92.0000
13.6748 39.9661 -93.0000
13.6748 39.9661 -94.0000
13.6748 39.9661 -95.0000
13.6748 39.9661 -96.0000
13.6748 39.9661 -97.0000
13.6748 39.9661 -98.0000
13.6748 39.9661 -99.0000
12.7631 37.3016 -101.0000
1.6153 5.3955 22.0000
0.0000 0.0000 21.0000
-3.2306 -10.7910 20.0000
-4.8459 -16.1865 19.0000
-4.8459 -16.1865 18.0000
-4.8459 -16.1865 17.0000
-4.8459 -16.1865 16.0000
-5.6536 -18.8842 15.0000
-7.2689 -24.2797 14.0000
-10.4995 -35.0707 13.0000
-10.4995 -35.0707 12.0000
1.6153 5.3955 7.0000
2.4230 8.0932 6.0000
2.4230 8.0932 5.0000
2.4230 8.0932 4.0000
2.4230 8.0932 3.0000
2.4230 8.0932 2.0000
2.4230 8.0932 1.0000
2.4230 8.0932 0.0000
2.4230 8.0932 -1.0000
2.4230 8.0932 -2.0000
2.4230 8.0932 -3.0000
2.4230 8.0932 -4.0000
2.4230 8.0932 -5.0000
2.4230 8.0932 -6.0000
2.4230 8.0932 -7.0000
2.4230 8.0932 -8.0000
2.4230 8.0932 -9.0000
2.4230 8.0932 -10.0000
2.4230 8.0932 -11.0000
2.4230 8.0932 -12.0000
2.4230 8.0932 -13.0000
2.4230 8.0932 -14.0000
2.4230 8.0932 -15.0000
2.4230 8.0932 -16.0000
3.2306 10.7910 -17.0000
5.6536 18.8842 -18.0000
5.6536 18.8842 -19.0000
6.4612 21.5820 -20.0000
6.4612 21.5820 -21.0000
8.8842 29.6752 -22.0000
8.8842 29.6752 -23.0000
8.8842 29.6752 -24.0000
8.8842 29.6752 -25.0000
8.8842 29.6752 -26.0000
8.8842 29.6752 -27.0000
8.8842 29.6752 -28.0000
8.8842 29.6752 -29.0000
8.8842 29.6752 -30.0000
8.8842 29.6752 -31.0000
8.8842 29.6752 -32.0000
8.8842 29.6752 -33.0000
8.8842 29.6752 -34.0000
8.8842 29.6752 -35.0000
8.8842 29.6752 -36.0000
8.8842 29.6752 -37.0000
8.8842 29.6752 -38.0000
8.8842 29.6752 -39.0000
8.8842 29.6752 -40.0000
8.8842 29.6752 -41.0000
9.6918 32.3730 -42.0000
9.6918 32.3730 -43.0000
9.6918 32.3730 -44.0000
9.6918 32.3730 -45.0000
9.6918 32.3730 -46.0000
9.6918 32.3730 -47.0000
9.6918 32.3730 -48.0000
9.6918 32.3730 -49.0000
2.4230 8.0932 -50.0000
2.4230 8.0932 -51.0000
10.4995 35.0707 -52.0000
10.4995 35.0707 -53.0000
10.4995 35.0707 -54.0000
10.4995 35.0707 -55.0000
10.4995 35.0707 -56.0000
10.4995 35.0707 -57.0000
10.4995 35.0707 -58.0000
10.4995 35.0707 -59.0000
10.4995 35.0707 -60.0000
10.4995 35.0707 -61.0000
10.4995 35.0707 -62.0000
10.4995 35.0707 -63.0000
10.4995 35.0707 -64.0000
10.4995 35.0707 -65.0000
10.4995 35.0707 -66.0000
10.4995 35.0707 -67.0000
10.4995 35.0707 -68.0000
10.4995 35.0707 -69.0000
10.4995 35.0707 -70.0000
10.4995 35.0707 -71.0000
10.4995 35.0707 -72.0000
10.4995 35.0707 -73.0000
10.4995 35.0707 -74.0000
10.4995 35.0707 -75.0000
10.4995 35.0707 -76.0000
10.4995 35.0707 -77.0000
10.4995 35.0707 -78.0000
10.4995 35.0707 -79.0000
10.4995 35.0707 -80.0000
10.4995 35.0707 -81.0000
10.4995 35.0707 -82.0000
10.4995 35.0707 -83.0000
11.3071 37.7685 -84.0000
11.3071 37.7685 -85.0000
11.3071 37.7685 -86.0000
11.3071 37.7685 -87.0000
11.3071 37.7685 -88.0000
12.1148 40.4662 -89.0000
12.1148 40.4662 -90.0000
12.1148 40.4662 -91.0000
12.1148 40.4662 -92.0000
12.1148 40.4662 -93.0000
12.1148 40.4662 -94.0000
12.1148 40.4662 -95.0000
12.1148 40.4662 -96.0000
12.1148 40.4662 -97.0000
11.3071 37.7685 -98.0000
1.4049 5.4541 22.0000
0.7024 2.7270 21.0000
-2.8098 -10.9082 20.0000
-4.2146 -16.3622 19.0000
-4.2146 -16.3622 18.0000
-4.2146 -16.3622 17.0000
-4.9171 -19.0893 16.0000
-5.6195 -21.8163 15.0000
-6.3220 -24.5433 14.0000
1.4049 5.4541 7.0000
2.1073 8.1811 6.0000
2.1073 8.1811 5.0000
2.1073 8.1811 4.0000
2.1073 8.1811 3.0000
2.1073 8.1811 2.0000
2.1073 8.1811 1.0000
2.1073 8.1811 0.0000
2.1073 8.1811 -1.0000
2.1073 8.1811 -2.0000
2.1073 8.1811 -3.0000
2.1073 8.1811 -4.0000
2.1073 8.1811 -5.0000
2.1073 8.1811 -6.0000
2.1073 8.1811 -7.0000
2.1073 8.1811 -8.0000
2.1073 8.1811 -9.0000
2.1073 8.1811 -10.0000
2.1073 8.1811 -11.0000
2.8098 10.9082 -12.0000
2.8098 10.9082 -13.0000
2.8098 10.9082 -14.0000
2.8098 10.9082 -15.0000
2.8098 10.9082 -16.0000
2.8098 10.9082 -17.0000
4.2146 16.3622 -18.0000
4.9171 19.0893 -19.0000
5.6195 21.8163 -20.0000
6.3220 24.5433 -21.0000
7.7268 29.9974 -22.0000
7.7268 29.9974 -23.0000
7.7268 29.9974 -24.0000
7.7268 29.9974 -25.0000
7.7268 29.9974 -26.0000
7.7268 29.9974 -27.0000
7.7268 29.9974 -28.0000
7.7268 29.9974 -29.0000
7.7268 29.9974 -30.0000
7.7268 29.9974 -31.0000
7.7268 29.9974 -32.0000
7.7268 29.9974 -33.0000
7.7268 29.9974 -34.0000
7.7268 29.9974 -35.0000
7.7268 29.9974 -36.0000
7.7268 29.9974 -37.0000
7.7268 29.9974 -38.0000
7.7268 29.9974 -39.0000
7.7268 29.9974 -40.0000
7.7268 29.9974 -41.0000
8.4293 32.7245 -42.0000
8.4293 32.7245 -43.0000
8.4293 32.7245 -44.0000
8.4293 32.7245 -45.0000
8.4293 32.7245 -46.0000
8.4293 32.7245 -47.0000
8.4293 32.7245 -48.0000
2.1073 8.1811 -49.0000
9.1317 35.4515 -50.0000
9.1317 35.4515 -51.0000
9.1317 35.4515 -52.0000
9.1317 35.4515 -53.0000
9.1317 35.4515 -54.0000
9.1317 35.4515 -55.0000
9.1317 35.4515 -56.0000
9.1317 35.4515 -57.0000
9.1317 35.4515 -58.0000
9.1317 35.4515 -59.0000
9.1317 35.4515 -60.0000
9.1317 35.4515 -61.0000
9.1317 35.4515 -62.0000
9.1317 35.4515 -63.0000
9.1317 35.4515 -64.0000
9.1317 35.4515 -65.0000
9.1317 35.4515 -66.0000
9.1317 35.4515 -67.0000
9.1317 35.4515 -68.0000
9.1317 35.4515 -69.0000
9.1317 35.4515 -70.0000
9.1317 35.4515 -71.0000
9.1317 35.4515 -72.0000
9.1317 35.4515 -73.0000
9.1317 35.4515 -74.0000
9.1317 35.4515 -75.0000
9.1317 35.4515 -76.0000
9.1317 35.4515 -77.0000
9.1317 35.4515 -78.0000
9.1317 35.4515 -79.0000
9.1317 35.4515 -80.0000
9.1317 35.4515 -81.0000
9.1317 35.4515 -82.0000
9.1317 35.4515 -83.0000
9.1317 35.4515 -84.0000
9.8342 38.1785 -85.0000
9.8342 38.1785 -86.0000
9.8342 38.1785 -87.0000
9.8342 38.1785 -88.0000
9.8342 38.1785 -89.0000
9.8342 38.1785 -90.0000
9.8342 38.1785 -91.0000
10.5366 40.9056 -92.0000
9.8342 38.1785 -93.0000
9.8342 38.1785 -94.0000
10.5366 40.9056 -95.0000
10.5366 40.9056 -96.0000
9.8342 38.1785 -97.0000
9.8342 38.1785 -98.0000
0.5962 2.7522 20.0000
-2.9808 -13.7611 19.0000
-3.5770 -16.5133 18.0000
-4.1732 -19.2656 17.0000
-4.7694 -22.0178 16.0000
-4.7694 -22.0178 15.0000
1.1923 5.5044 6.0000
1.7885 8.2567 5.0000
1.7885 8.2567 4.0000
1.7885 8.2567 3.0000
1.7885 8.2567 2.0000
1.7885 8.2567 1.0000
1.7885 8.2567 0.0000
1.7885 8.2567 -1.0000
1.7885 8.2567 -2.0000
1.7885 8.2567 -3.0000
1.7885 8.2567 -4.0000
1.7885 8.2567 -5.0000
1.7885 8.2567 -6.0000
1.7885 8.2567 -7.0000
1.7885 8.2567 -8.0000
1.7885 8.2567 -9.0000
1.7885 8.2567 -10.0000
1.7885 8.2567 -11.0000
2.3847 11.0089 -12.0000
2.3847 11.0089 -13.0000
2.3847 11.0089 -14.0000
2.3847 11.0089 -15.0000
2.3847 11.0089 -16.0000
1.7885 8.2567 -17.0000
2.9808 13.7611 -18.0000
4.1732 19.2656 -19.0000
4.7694 22.0178 -20.0000
5.3655 24.7700 -21.0000
6.5579 30.2745 -22.0000
6.5579 30.2745 -23.0000
6.5579 30.2745 -24.0000
6.5579 30.2745 -25.0000
6.5579 30.2745 -26.0000
6.5579 30.2745 -27.0000
6.5579 30.2745 -28.0000
6.5579 30.2745 -29.0000
6.5579 30.2745 -30.0000
6.5579 30.2745 -31.0000
6.5579 30.2745 -32.0000
6.5579 30.2745 -33.0000
6.5579 30.2745 -34.0000
6.5579 30.2745 -35.0000
6.5579 30.2745 -36.0000
6.5579 30.2745 -37.0000
6.5579 30.2745 -38.0000
6.5579 30.2745 -39.0000
6.5579 30.2745 -40.0000
6.5579 30.2745 -41.0000
6.5579 30.2745 -42.0000
6.5579 30.2745 -43.0000
6.5579 30.2745 -44.0000
7.1540 33.0267 -45.0000
7.1540 33.0267 -46.0000
7.1540 33.0267 -47.0000
1.7885 8.2567 -48.0000
7.1540 33.0267 -49.0000
7.7502 35.7789 -50.0000
7.7502 35.7789 -51.0000
7.7502 35.7789 -52.0000
7.7502 35.7789 -53.0000
7.7502 35.7789 -54.0000
7.7502 35.7789 -55.0000
7.7502 35.7789 -56.0000
7.7502 35.7789 -57.0000
7.7502 35.7789 -58.0000
7.7502 35.7789 -59.0000
7.7502 35.7789 -60.0000
7.7502 35.7789 -61.0000
7.7502 35.7789 -62.0000
7.7502 35.7789 -63.0000
7.7502 35.7789 -64.0000
7.7502 35.7789 -65.0000
7.7502 35.7789 -66.0000
7.7502 35.7789 -67.0000
7.7502 35.7789 -68.0000
7.7502 35.7789 -69.0000
7.7502 35.7789 -70.0000
7.7502 35.7789 -71.0000
7.7502 35.7789 -72.0000
7.7502 35.7789 -73.0000
7.7502 35.7789 -74.0000
7.7502 35.7789 -75.0000
7.7502 35.7789 -76.0000
7.7502 35.7789 -77.0000
7.7502 35.7789 -78.0000
7.7502 35.7789 -79.0000
7.7502 35.7789 -80.0000
7.7502 35.7789 -81.0000
7.7502 35.7789 -82.0000
7.7502 35.7789 -83.0000
7.7502 35.7789 -84.0000
8.3464 38.5311 -85.0000
8.3464 38.5311 -86.0000
8.3464 38.5311 -87.0000
8.3464 38.5311 -88.0000
8.3464 38.5311 -89.0000
8.3464 38.5311 -90.0000
8.3464 38.5311 -91.0000
8.3464 38.5311 -92.0000
8.3464 38.5311 -93.0000
8.3464 38.5311 -94.0000
8.9425 41.2834 -95.0000
8.9425 41.2834 -96.0000
8.3464 38.5311 -97.0000
8.3464 38.5311 -98.0000
-2.9340 -16.6396 18.0000
-3.4230 -19.4129 17.0000
-3.4230 -19.4129 16.0000
-3.9120 -22.1862 15.0000
0.9780 5.5465 6.0000
0.9780 5.5465 5.0000
1.4670 8.3198 4.0000
1.4670 8.3198 3.0000
1.4670 8.3198 2.0000
1.4670 8.3198 1.0000
1.4670 8.3198 0.0000
1.4670 8.3198 -1.0000
1.4670 8.3198 -2.0000
1.4670 8.3198 -3.0000
1.4670 8.3198 -4.0000
1.4670 8.3198 -5.0000
1.4670 8.3198 -6.0000
1.4670 8.3198 -7.0000
1.4670 8.3198 -8.0000
1.4670 8.3198 -9.0000
1.4670 8.3198 -10.0000
1.4670 8.3198 -11.0000
1.4670 8.3198 -12.0000
1.4670 8.3198 -13.0000
1.4670 8.3198 -14.0000
1.4670 8.3198 -15.0000
1.4670 8.3198 -16.0000
1.4670 8.3198 -17.0000
2.4450 13.8664 -18.0000
3.4230 19.4129 -19.0000
3.9120 22.1862 -20.0000
5.3790 30.5060 -21.0000
5.3790 30.5060 -22.0000
5.3790 30.5060 -23.0000
5.3790 30.5060 -24.0000
5.3790 30.5060 -25.0000
5.3790 30.5060 -26.0000
5.3790 30.5060 -27.0000
5.3790 30.5060 -28.0000
5.3790 30.5060 -29.0000
5.3790 30.5060 -30.0000
5.3790 30.5060 -31.0000
5.3790 30.5060 -32.0000
5.3790 30.5060 -33.0000
5.3790 30.5060 -34.0000
5.3790 30.5060 -35.0000
5.3790 30.5060 -36.0000
5.3790 30.5060 -37.0000
5.3790 30.5060 -38.0000
5.3790 30.5060 -39.0000
5.3790 30.5060 -40.0000
5.3790 30.5060 -41.0000
5.3790 30.5060 -42.0000
5.8680 33.2793 -43.0000
5.8680 33.2793 -44.0000
5.8680 33.2793 -45.0000
5.8680 33.2793 -46.0000
5.8680 33.2793 -47.0000
5.8680 33.2793 -48.0000
5.8680 33.2793 -49.0000
6.3570 36.0525 -50.0000
6.3570 36.0525 -51.0000
6.3570 36.0525 -52.0000
6.3570 36.0525 -53.0000
6.3570 36.0525 -54.0000
6.3570 36.0525 -55.0000
6.3570 36.0525 -56.0000
6.3570 36.0525 -57.0000
6.3570 36.0525 -58.0000
6.3570 36.0525 -59.0000
6.3570 36.0525 -60.0000
6.3570 36.0525 -61.0000
6.3570 36.0525 -62.0000
6.3570 36.0525 -63.0000
6.3570 36.0525 -64.0000
6.3570 36.0525 -65.0000
6.3570 36.0525 -66.0000
6.3570 36.0525 -67.0000
6.3570 36.0525 -68.0000
6.3570 36.0525 -69.0000
6.3570 36.0525 -70.0000
6.3570 36.0525 -71.0000
6.3570 36.0525 -72.0000
6.3570 36.0525 -73.0000
6.3570 36.0525 -74.0000
6.3570 36.0525 -75.0000
6.3570 36.0525 -76.0000
6.3570 36.0525 -77.0000
6.3570 36.0525 -78.0000
6.3570 36.0525 -79.0000
6.3570 36.0525 -80.0000
6.3570 36.0525 -81.0000
6.3570 36.0525 -82.0000
6.3570 36.0525 -83.0000
6.3570 36.0525 -84.0000
6.8460 38.8258 -85.0000
6.8460 38.8258 -86.0000
6.8460 38.8258 -87.0000
6.8460 38.8258 -88.0000
6.8460 38.8258 -89.0000
6.8460 38.8258 -90.0000
6.8460 38.8258 -91.0000
6.8460 38.8258 -92.0000
6.8460 38.8258 -93.0000
6.8460 38.8258 -94.0000
7.3350 41.5991 -95.0000
7.3350 41.5991 -96.0000
6.8460 38.8258 -97.0000
6.8460 38.8258 -98.0000
0.7622 5.5803 5.0000
0.7622 5.5803 4.0000
1.1433 8.3704 3.0000
1.1433 8.3704 2.0000
1.1433 8.3704 1.0000
1.1433 8.3704 0.0000
1.1433 8.3704 -1.0000
1.1433 8.3704 -2.0000
1.1433 8.3704 -3.0000
1.1433 8.3704 -4.0000
1.1433 8.3704 -5.0000
1.1433 8.3704 -6.0000
1.1433 8.3704 -7.0000
1.1433 8.3704 -8.0000
1.1433 8.3704 -9.0000
1.1433 8.3704 -10.0000
1.1433 8.3704 -11.0000
1.1433 8.3704 -12.0000
1.1433 8.3704 -13.0000
1.1433 8.3704 -14.0000
1.1433 8.3704 -15.0000
1.1433 8.3704 -16.0000
1.1433 8.3704 -17.0000
1.9055 13.9507 -18.0000
3.0488 22.3212 -19.0000
3.4299 25.1113 -20.0000
4.1921 30.6916 -21.0000
4.1921 30.6916 -22.0000
4.1921 30.6916 -23.0000
4.1921 30.6916 -24.0000
4.1921 30.6916 -25.0000
4.1921 30.6916 -26.0000
4.1921 30.6916 -27.0000
4.1921 30.6916 -28.0000
4.1921 30.6916 -29.0000
4.1921 30.6916 -30.0000
4.1921 30.6916 -31.0000
4.1921 30.6916 -32.0000
4.1921 30.6916 -33.0000
4.1921 30.6916 -34.0000
4.1921 30.6916 -35.0000
4.1921 30.6916 -36.0000
4.1921 30.6916 -37.0000
4.1921 30.6916 -38.0000
4.1921 30.6916 -39.0000
4.1921 30.6916 -40.0000
4.1921 30.6916 -41.0000
4.5732 33.4818 -42.0000
4.5732 33.4818 -43.0000
4.5732 33.4818 -44.0000
4.5732 33.4818 -45.0000
4.5732 33.4818 -46.0000
4.5732 33.4818 -47.0000
4.5732 33.4818 -48.0000
4.9543 36.2719 -49.0000
4.9543 36.2719 -50.0000
4.9543 36.2719 -51.0000
4.9543 36.2719 -52.0000
4.9543 36.2719 -53.0000
4.9543 36.2719 -54.0000
4.9543 36.2719 -55.0000
4.9543 36.2719 -56.0000
4.9543 36.2719 -57.0000
4.9543 36.2719 -58.0000
4.9543 36.2719 -59.0000
4.9543 36.2719 -60.0000
4.9543 36.2719 -61.0000
4.9543 36.2719 -62.0000
4.9543 36.2719 -63.0000
4.9543 36.2719 -64.0000
4.9543 36.2719 -65.0000
4.9543 36.2719 -66.0000
4.9543 36.2719 -67.0000
4.9543 36.2719 -68.0000
4.9543 36.2719 -69.0000
4.9543 36.2719 -70.0000
4.9543 36.2719 -71.0000
4.9543 36.2719 -72.0000
4.9543 36.2719 -73.0000
4.9543 36.2719 -74.0000
4.9543 36.2719 -75.0000
4.9543 36.2719 -76.0000
4.9543 36.2719 -77.0000
4.9543 36.2719 -78.0000
4.9543 36.2719 -79.0000
5.3354 39.0621 -80.0000
4.9543 36.2719 -81.0000
5.3354 39.0621 -82.0000
5.3354 39.0621 -83.0000
5.3354 39.0621 -84.0000
5.3354 39.0621 -85.0000
5.3354 39.0621 -86.0000
5.3354 39.0621 -87.0000
5.3354 39.0621 -88.0000
5.3354 39.0621 -89.0000
5.3354 39.0621 -90.0000
5.3354 39.0621 -91.0000
5.3354 39.0621 -92.0000
5.3354 39.0621 -93.0000
5.3354 39.0621 -94.0000
5.3354 39.0621 -95.0000
5.7165 41.8522 -96.0000
5.3354 39.0621 -97.0000
5.3354 39.0621 -98.0000
0.5452 5.6057 5.0000
0.5452 5.6057 4.0000
0.8179 8.4085 3.0000
0.8179 8.4085 2.0000
0.8179 8.4085 1.0000
0.8179 8.4085 0.0000
0.8179 8.4085 -1.0000
0.8179 8.4085 -2.0000
0.8179 8.4085 -3.0000
0.8179 8.4085 -4.0000
0.8179 8.4085 -5.0000
0.8179 8.4085 -6.0000
0.8179 8.4085 -7.0000
0.8179 8.4085 -8.0000
0.8179 8.4085 -9.0000
0.8179 8.4085 -10.0000
0.8179 8.4085 -11.0000
0.8179 8.4085 -12.0000
0.8179 8.4085 -13.0000
0.8179 8.4085 -14.0000
0.8179 8.4085 -15.0000
0.8179 8.4085 -16.0000
1.0905 11.2113 -17.0000
2.1810 22.4226 -19.0000
2.7262 28.0283 -20.0000
2.9989 30.8311 -21.0000
2.9989 30.8311 -22.0000
2.9989 30.8311 -23.0000
2.9989 30.8311 -24.0000
2.9989 30.8311 -25.0000
2.9989 30.8311 -26.0000
2.9989 30.8311 -27.0000
2.9989 30.8311 -28.0000
2.9989 30.8311 -29.0000
2.9989 30.8311 -30.0000
2.9989 30.8311 -31.0000
2.9989 30.8311 -32.0000
2.9989 30.8311 -33.0000
2.9989 30.8311 -34.0000
2.9989 30.8311 -35.0000
2.9989 30.8311 -36.0000
2.9989 30.8311 -37.0000
2.9989 30.8311 -38.0000
2.9989 30.8311 -39.0000
3.2715 33.6339 -40.0000
3.2715 33.6339 -41.0000
3.2715 33.6339 -42.0000
3.2715 33.6339 -43.0000
3.2715 33.6339 -44.0000
3.2715 33.6339 -45.0000
3.2715 33.6339 -46.0000
3.2715 33.6339 -47.0000
3.5441 36.4367 -48.0000
3.5441 36.4367 -49.0000
3.5441 36.4367 -50.0000
3.5441 36.4367 -51.0000
3.5441 36.4367 -52.0000
3.5441 36.4367 -53.0000
3.5441 36.4367 -54.0000
3.5441 36.4367 -55.0000
3.5441 36.4367 -56.0000
3.5441 36.4367 -57.0000
3.5441 36.4367 -58.0000
3.5441 36.4367 -59.0000
3.5441 36.4367 -60.0000
3.5441 36.4367 -61.0000
3.5441 36.4367 -62.0000
3.5441 36.4367 -63.0000
3.5441 36.4367 -64.0000
3.5441 36.4367 -65.0000
3.5441 36.4367 -66.0000
3.5441 36.4367 -67.0000
3.5441 36.4367 -68.0000
3.5441 36.4367 -69.0000
3.5441 36.4367 -70.0000
3.5441 36.4367 -71.0000
3.5441 36.4367 -72.0000
3.5441 36.4367 -73.0000
3.5441 36.4367 -74.0000
3.5441 36.4367 -75.0000
3.5441 36.4367 -76.0000
3.5441 36.4367 -77.0000
3.5441 36.4367 -78.0000
3.8167 39.2396 -79.0000
3.5441 36.4367 -80.0000
3.5441 36.4367 -81.0000
3.8167 39.2396 -82.0000
3.8167 39.2396 -83.0000
3.8167 39.2396 -84.0000
3.8167 39.2396 -85.0000
3.8167 39.2396 -86.0000
3.8167 39.2396 -87.0000
3.8167 39.2396 -88.0000
3.8167 39.2396 -89.0000
3.8167 39.2396 -90.0000
3.8167 39.2396 -91.0000
3.8167 39.2396 -92.0000
3.8167 39.2396 -93.0000
3.8167 39.2396 -94.0000
3.8167 39.2396 -95.0000
4.0894 42.0424 -96.0000
3.8167 39.2396 -97.0000
3.8167 39.2396 -98.0000
3.8167 39.2396 -99.0000
0.4912 8.4339 -2.0000
0.4912 8.4339 -3.0000
0.4912 8.4339 -4.0000
0.4912 8.4339 -5.0000
0.4912 8.4339 -6.0000
0.4912 8.4339 -7.0000
0.4912 8.4339 -8.0000
0.4912 8.4339 -9.0000
0.4912 8.4339 -10.0000
0.4912 8.4339 -11.0000
0.4912 8.4339 -12.0000
0.6550 11.2452 -13.0000
0.6550 11.2452 -14.0000
0.6550 11.2452 -15.0000
1.8011 30.9242 -20.0000
1.8011 30.9242 -21.0000
1.8011 30.9242 -22.0000
1.8011 30.9242 -23.0000
1.8011 30.9242 -24.0000
1.8011 30.9242 -25.0000
1.8011 30.9242 -26.0000
1.8011 30.9242 -27.0000
1.8011 30.9242 -28.0000
1.8011 30.9242 -29.0000
1.8011 30.9242 -30.0000
1.8011 30.9242 -31.0000
1.8011 30.9242 -32.0000
1.8011 30.9242 -33.0000
1.8011 30.9242 -34.0000
1.8011 30.9242 -35.0000
1.8011 30.9242 -36.0000
1.8011 30.9242 -37.0000
1.9649 33.7355 -38.0000
1.9649 33.7355 -39.0000
1.9649 33.7355 -40.0000
1.9649 33.7355 -41.0000
1.9649 33.7355 -42.0000
1.9649 33.7355 -43.0000
1.9649 33.7355 -44.0000
2.1286 36.5468 -45.0000
2.1286 36.5468 -46.0000
2.1286 36.5468 -47.0000
2.1286 36.5468 -48.0000
2.1286 36.5468 -49.0000
2.1286 36.5468 -50.0000
2.1286 36.5468 -51.0000
2.1286 36.5468 -52.0000
2.1286 36.5468 -53.0000
2.1286 36.5468 -54.0000
2.1286 36.5468 -55.0000
2.1286 36.5468 -56.0000
2.1286 36.5468 -57.0000
2.1286 36.5468 -58.0000
2.1286 36.5468 -59.0000
2.1286 36.5468 -60.0000
2.1286 36.5468 -61.0000
2.1286 36.5468 -62.0000
2.1286 36.5468 -63.0000
2.1286 36.5468 -64.0000
2.1286 36.5468 -65.0000
2.1286 36.5468 -66.0000
2.1286 36.5468 -67.0000
2.1286 36.5468 -68.0000
2.1286 36.5468 -69.0000
2.1286 36.5468 -70.0000
2.1286 36.5468 -71.0000
2.1286 36.5468 -72.0000
2.1286 36.5468 -73.0000
2.1286 36.5468 -74.0000
2.1286 36.5468 -75.0000
2.1286 36.5468 -76.0000
2.1286 36.5468 -77.0000
2.1286 36.5468 -78.0000
2.1286 36.5468 -79.0000
2.2923 39.3580 -80.0000
2.2923 39.3580 -81.0000
2.2923 39.3580 -82.0000
2.2923 39.3580 -83.0000
2.2923 39.3580 -84.0000
2.2923 39.3580 -85.0000
2.2923 39.3580 -86.0000
2.2923 39.3580 -87.0000
2.2923 39.3580 -88.0000
2.2923 39.3580 -89.0000
2.2923 39.3580 -90.0000
2.2923 39.3580 -91.0000
2.2923 39.3580 -92.0000
2.2923 39.3580 -93.0000
2.2923 39.3580 -94.0000
2.4561 42.1693 -95.0000
2.4561 42.1693 -96.0000
2.2923 39.3580 -97.0000
2.2923 39.3580 -98.0000
0.1638 8.4466 -6.0000
0.1638 8.4466 -7.0000
0.6007 30.9708 -20.0000
0.6007 30.9708 -21.0000
0.6007 30.9708 -22.0000
0.6007 30.9708 -23.0000
0.6007 30.9708 -24.0000
0.6007 30.9708 -25.0000
0.6007 30.9708 -26.0000
0.6007 30.9708 -27.0000
0.6007 30.9708 -28.0000
0.6007 30.9708 -29.0000
0.6007 30.9708 -30.0000
0.6007 30.9708 -31.0000
0.6553 33.7863 -32.0000
0.6553 33.7863 -33.0000
0.6553 33.7863 -34.0000
0.6553 33.7863 -35.0000
0.6553 33.7863 -36.0000
0.6553 33.7863 -37.0000
0.6553 33.7863 -38.0000
0.6553 33.7863 -39.0000
0.6553 33.7863 -40.0000
0.7099 36.6018 -41.0000
0.7099 36.6018 -42.0000
0.7099 36.6018 -43.0000
0.7099 36.6018 -44.0000
0.7099 36.6018 -45.0000
0.7099 36.6018 -46.0000
0.7099 36.6018 -47.0000
0.7099 36.6018 -48.0000
0.7099 36.6018 -49.0000
0.7099 36.6018 -50.0000
0.7099 36.6018 -51.0000
0.7099 36.6018 -52.0000
0.7099 36.6018 -53.0000
0.7099 36.6018 -54.0000
0.7099 36.6018 -55.0000
0.7099 36.6018 -56.0000
0.7099 36.6018 -57.0000
0.7099 36.6018 -58.0000
0.7099 36.6018 -59.0000
0.7099 36.6018 -60.0000
0.7099 36.6018 -61.0000
0.7099 36.6018 -62.0000
0.7099 36.6018 -63.0000
0.7099 36.6018 -64.0000
0.7099 36.6018 -65.0000
0.7099 36.6018 -66.0000
0.7099 36.6018 -67.0000
0.7099 36.6018 -68.0000
0.7099 36.6018 -69.0000
0.7099 36.6018 -70.0000
0.7099 36.6018 -71.0000
0.7099 36.6018 -72.0000
0.7099 36.6018 -73.0000
0.7099 36.6018 -74.0000
0.7099 36.6018 -75.0000
0.7099 36.6018 -76.0000
0.7645 39.4173 -77.0000
0.7645 39.4173 -78.0000
0.7645 39.4173 -79.0000
0.7645 39.4173 -80.0000
0.7645 39.4173 -81.0000
0.7645 39.4173 -82.0000
0.7645 39.4173 -83.0000
0.7645 39.4173 -84.0000
0.7645 39.4173 -85.0000
0.7645 39.4173 -86.0000
0.7645 39.4173 -87.0000
0.7645 39.4173 -88.0000
0.7645 39.4173 -89.0000
0.8191 42.2329 -90.0000
0.8191 42.2329 -91.0000
0.8191 42.2329 -92.0000
0.8191 42.2329 -93.0000
0.8191 42.2329 -94.0000
0.8191 42.2329 -95.0000
0.8191 42.2329 -96.0000
0.7645 39.4173 -97.0000
-0.6553 33.7863 -20.0000
-0.6553 33.7863 -21.0000
-0.6007 30.9708 -22.0000
-0.6007 30.9708 -23.0000
-0.6007 30.9708 -24.0000
-0.6007 30.9708 -25.0000
-0.6007 30.9708 -26.0000
-0.6553 33.7863 -27.0000
-0.6553 33.7863 -28.0000
-0.6553 33.7863 -29.0000
-0.6553 33.7863 -30.0000
-0.6553 33.7863 -31.0000
-0.6553 33.7863 -32.0000
-0.6553 33.7863 -33.0000
-0.6553 33.7863 -34.0000
-0.7099 36.6018 -35.0000
-0.7099 36.6018 -36.0000
-0.7099 36.6018 -37.0000
-0.7099 36.6018 -38.0000
-0.7099 36.6018 -39.0000
-0.7099 36.6018 -40.0000
-0.7099 36.6018 -41.0000
-0.7099 36.6018 -42.0000
-0.7099 36.6018 -43.0000
-0.7099 36.6018 -44.0000
-0.7099 36.6018 -45.0000
-0.7099 36.6018 -46.0000
-0.7099 36.6018 -47.0000
-0.7099 36.6018 -48.0000
-0.7099 36.6018 -49.0000
-0.7099 36.6018 -50.0000
-0.7099 36.6018 -51.0000
-0.7099 36.6018 -52.0000
-0.7099 36.6018 -53.0000
-0.7099 36.6018 -54.0000
-0.7099 36.6018 -55.0000
-0.7099 36.6018 -56.0000
-0.7099 36.6018 -57.0000
-0.7099 36.6018 -58.0000
-0.7099 36.6018 -59.0000
-0.7099 36.6018 -60.0000
-0.7099 36.6018 -61.0000
-0.7099 36.6018 -62.0000
-0.7099 36.6018 -63.0000
-0.7099 36.6018 -64.0000
-0.7099 36.6018 -65.0000
-0.7099 36.6018 -66.0000
-0.7099 36.6018 -67.0000
-0.7099 36.6018 -68.0000
-0.7099 36.6018 -69.0000
-0.7099 36.6018 -70.0000
-0.7099 36.6018 -71.0000
-0.7099 36.6018 -72.0000
-0.7099 36.6018 -73.0000
-0.7645 39.4173 -74.0000
-0.7645 39.4173 -75.0000
-0.7645 39.4173 -76.0000
-0.7645 39.4173 -77.0000
-0.7645 39.4173 -78.0000
-0.7645 39.4173 -79.0000
-0.7645 39.4173 -80.0000
-0.7645 39.4173 -81.0000
-0.7645 39.4173 -82.0000
-0.7645 39.4173 -83.0000
-0.7645 39.4173 -84.0000
-0.7645 39.4173 -85.0000
-0.7645 39.4173 -86.0000
-0.8191 42.2329 -87.0000
-0.8191 42.2329 -88.0000
-0.8191 42.2329 -89.0000
-0.8191 42.2329 -90.0000
-0.8191 42.2329 -91.0000
-0.8191 42.2329 -92.0000
-0.8191 42.2329 -93.0000
-0.8191 42.2329 -94.0000
-0.8191 42.2329 -95.0000
-0.8191 42.2329 -96.0000
-0.8191 42.2329 -97.0000
-1.9649 33.7355 -20.0000
-1.9649 33.7355 -21.0000
-1.9649 33.7355 -22.0000
-1.9649 33.7355 -23.0000
-1.9649 33.7355 -24.0000
-1.9649 33.7355 -25.0000
-1.9649 33.7355 -26.0000
-1.9649 33.7355 -27.0000
-1.9649 33.7355 -28.0000
-1.9649 33.7355 -29.0000
-2.1286 36.5468 -30.0000
-2.1286 36.5468 -31.0000
-2.1286 36.5468 -32.0000
-2.1286 36.5468 -33.0000
-2.1286 36.5468 -34.0000
-2.1286 36.5468 -35.0000
-2.1286 36.5468 -36.0000
-2.1286 36.5468 -37.0000
-2.1286 36.5468 -38.0000
-2.1286 36.5468 -39.0000
-2.1286 36.5468 -40.0000
-2.1286 36.5468 -41.0000
-2.1286 36.5468 -42.0000
-2.1286 36.5468 -43.0000
-2.1286 36.5468 -44.0000
-2.1286 36.5468 -45.0000
-2.1286 36.5468 -46.0000
-2.1286 36.5468 -47.0000
-2.1286 36.5468 -48.0000
-2.1286 36.5468 -49.0000
-2.1286 36.5468 -50.0000
-2.1286 36.5468 -51.0000
-2.1286 36.5468 -52.0000
-2.1286 36.5468 -53.0000
-2.1286 36.5468 -54.0000
-2.1286 36.5468 -55.0000
-2.1286 36.5468 -56.0000
-2.1286 36.5468 -57.0000
-2.1286 36.5468 -58.0000
-2.1286 36.5468 -59.0000
-2.1286 36.5468 -60.0000
-2.1286 36.5468 -61.0000
-2.1286 36.5468 -62.0000
-2.1286 36.5468 -63.0000
-2.1286 36.5468 -64.0000
-2.1286 36.5468 -65.0000
-2.1286 36.5468 -66.0000
-2.1286 36.5468 -67.0000
-2.1286 36.5468 -68.0000
-2.1286 36.5468 -69.0000
-2.2923 39.3580 -70.0000
-2.2923 39.3580 -71.0000
-2.2923 39.3580 -72.0000
-2.2923 39.3580 -73.0000
-2.2923 39.3580 -74.0000
-2.2923 39.3580 -75.0000
-2.2923 39.3580 -76.0000
-2.2923 39.3580 -77.0000
-2.2923 39.3580 -78.0000
-2.2923 39.3580 -79.0000
-2.2923 39.3580 -80.0000
-2.4561 42.1693 -81.0000
-2.4561 42.1693 -82.0000
-2.4561 42.1693 -83.0000
-2.4561 42.1693 -84.0000
-2.4561 42.1693 -85.0000
-2.4561 42.1693 -86.0000
-2.4561 42.1693 -87.0000
-2.4561 42.1693 -88.0000
-2.4561 42.1693 -89.0000
-2.4561 42.1693 -90.0000
-2.4561 42.1693 -91.0000
-2.4561 42.1693 -92.0000
-2.4561 42.1693 -93.0000
-2.4561 42.1693 -94.0000
-2.4561 42.1693 -95.0000
-2.4561 42.1693 -96.0000
-2.4561 42.1693 -97.0000
-3.2715 33.6339 -20.0000
-3.2715 33.6339 -21.0000
-3.2715 33.6339 -22.0000
-3.2715 33.6339 -23.0000
-3.5441 36.4367 -24.0000
-3.5441 36.4367 -25.0000
-3.5441 36.4367 -26.0000
-3.5441 36.4367 -27.0000
-3.5441 36.4367 -28.0000
-3.5441 36.4367 -29.0000
-3.5441 36.4367 -30.0000
-3.5441 36.4367 -31.0000
-3.5441 36.4367 -32.0000
-3.5441 36.4367 -33.0000
-3.5441 36.4367 -34.0000
-3.5441 36.4367 -35.0000
-3.5441 36.4367 -36.0000
-3.5441 36.4367 -37.0000
-3.5441 36.4367 -38.0000
-3.5441 36.4367 -39.0000
-3.5441 36.4367 -40.0000
-3.5441 36.4367 -41.0000
-3.5441 36.4367 -42.0000
-3.5441 36.4367 -43.0000
-3.5441 36.4367 -44.0000
-3.5441 36.4367 -45.0000
-3.5441 36.4367 -46.0000
-3.5441 36.4367 -47.0000
-3.5441 36.4367 -48.0000
-3.5441 36.4367 -49.0000
-3.5441 36.4367 -50.0000
-3.5441 36.4367 -51.0000
-3.5441 36.4367 -52.0000
-3.5441 36.4367 -53.0000
-3.5441 36.4367 -54.0000
-3.5441 36.4367 -55.0000
-3.5441 36.4367 -56.0000
-3.5441 36.4367 -57.0000
-3.5441 36.4367 -58.0000
-3.5441 36.4367 -59.0000
-3.5441 36.4367 -60.0000
-3.5441 36.4367 -61.0000
-3.5441 36.4367 -62.0000
-3.5441 36.4367 -63.0000
-3.5441 36.4367 -64.0000
-3.8167 39.2396 -65.0000
-3.8167 39.2396 -66.0000
-3.8167 39.2396 -67.0000
-3.8167 39.2396 -68.0000
-3.8167 39.2396 -69.0000
-3.8167 39.2396 -70.0000
-3.8167 39.2396 -71.0000
-3.8167 39.2396 -72.0000
-3.8167 39.2396 -73.0000
-3.8167 39.2396 -74.0000
-3.8167 39.2396 -75.0000
-3.8167 39.2396 -76.0000
-4.0894 42.0424 -77.0000
-4.0894 42.0424 -78.0000
-4.0894 42.0424 -79.0000
-4.0894 42.0424 -80.0000
-4.0894 42.0424 -81.0000
-4.0894 42.0424 -82.0000
-4.0894 42.0424 -83.0000
-4.0894 42.0424 -84.0000
