66.6789 130.3728 -64.0000
66.6789 130.3728 -65.0000
66.6789 130.3728 -66.0000
66.6789 130.3728 -67.0000
65.3966 127.8656 -68.0000
65.3966 127.8656 -69.0000
64.1143 125.3584 -70.0000
64.1143 125.3584 -71.0000
64.1143 125.3584 -72.0000
62.8320 122.8513 -73.0000
61.5497 120.3441 -74.0000
61.5497 120.3441 -75.0000
61.5497 120.3441 -76.0000
60.2675 117.8369 -77.0000
58.9852 115.3298 -78.0000
58.9852 115.3298 -79.0000
57.7029 112.8226 -80.0000
56.4206 110.3154 -81.0000
56.4206 110.3154 -82.0000
55.1383 107.8083 -83.0000
53.8560 105.3011 -84.0000
52.5737 102.7939 -85.0000
51.2915 100.2868 -86.0000
50.0092 97.7796 -87.0000
48.7269 95.2724 -88.0000
48.7269 95.2724 -89.0000
46.1623 90.2581 -90.0000
46.1623 90.2581 -91.0000
44.8800 87.7509 -92.0000
43.5977 85.2437 -93.0000
43.5977 85.2437 -94.0000
42.3155 82.7366 -95.0000
42.3155 82.7366 -96.0000
42.3155 82.7366 -97.0000
42.3155 82.7366 -98.0000
42.3155 82.7366 -99.0000
42.3155 82.7366 -100.0000
42.3155 82.7366 -101.0000
102.5829 200.5735 -115.0000
71.0044 162.5827 -30.0000
66.4962 152.2600 -31.0000
71.0044 162.5827 -32.0000
75.5127 172.9055 -33.0000
69.8774 160.0021 -34.0000
63.1150 144.5180 -35.0000
69.8774 160.0021 -36.0000
69.8774 160.0021 -37.0000
69.8774 160.0021 -38.0000
52.9716 121.2919 -39.0000
25.9223 59.3556 -40.0000
9.0164 20.6454 -41.0000
69.8774 160.0021 -42.0000
69.8774 160.0021 -43.0000
69.8774 160.0021 -44.0000
68.7503 157.4214 -45.0000
68.7503 157.4214 -46.0000
67.6233 154.8407 -47.0000
66.4962 152.2600 -48.0000
66.4962 152.2600 -49.0000
65.3692 149.6794 -50.0000
64.2421 147.0987 -51.0000
63.1150 144.5180 -52.0000
63.1150 144.5180 -53.0000
63.1150 144.5180 -54.0000
63.1150 144.5180 -55.0000
61.9880 141.9373 -56.0000
61.9880 141.9373 -57.0000
61.9880 141.9373 -58.0000
60.8609 139.3566 -59.0000
60.8609 139.3566 -60.0000
60.8609 139.3566 -61.0000
60.8609 139.3566 -62.0000
59.7339 136.7760 -63.0000
59.7339 136.7760 -64.0000
58.6068 134.1953 -65.0000
58.6068 134.1953 -66.0000
58.6068 134.1953 -67.0000
58.6068 134.1953 -68.0000
57.4798 131.6146 -69.0000
57.4798 131.6146 -70.0000
56.3527 129.0339 -71.0000
56.3527 129.0339 -72.0000
55.2257 126.4532 -73.0000
55.2257 126.4532 -74.0000
54.0986 123.8726 -75.0000
54.0986 123.8726 -76.0000
52.9716 121.2919 -77.0000
51.8445 118.7112 -78.0000
51.8445 118.7112 -79.0000
51.8445 118.7112 -80.0000
49.5904 113.5499 -81.0000
49.5904 113.5499 -82.0000
48.4633 110.9692 -83.0000
47.3363 108.3885 -84.0000
46.2092 105.8078 -85.0000
45.0822 103.2271 -86.0000
45.0822 103.2271 -87.0000
42.8281 98.0658 -88.0000
42.8281 98.0658 -89.0000
41.7010 95.4851 -90.0000
40.5740 92.9044 -91.0000
39.4469 90.3238 -92.0000
38.3199 87.7431 -93.0000
38.3199 87.7431 -94.0000
38.3199 87.7431 -95.0000
37.1928 85.1624 -96.0000
37.1928 85.1624 -97.0000
37.1928 85.1624 -98.0000
37.1928 85.1624 -99.0000
37.1928 85.1624 -100.0000
37.1928 85.1624 -101.0000
55.1549 150.7415 -31.0000
58.0578 158.6753 -32.0000
66.7664 182.4766 -33.0000
59.9930 163.9645 -34.0000
50.3167 137.5186 -35.0000
52.2520 142.8078 -36.0000
60.9606 166.6091 -37.0000
60.9606 166.6091 -38.0000
60.9606 166.6091 -39.0000
31.9318 87.2714 -40.0000
11.6116 31.7351 -41.0000
33.8670 92.5606 -42.0000
59.9930 163.9645 -43.0000
59.9930 163.9645 -44.0000
59.0254 161.3199 -45.0000
59.0254 161.3199 -46.0000
59.0254 161.3199 -47.0000
58.0578 158.6753 -48.0000
57.0901 156.0307 -49.0000
56.1225 153.3861 -50.0000
55.1549 150.7415 -51.0000
55.1549 150.7415 -52.0000
54.1872 148.0969 -53.0000
54.1872 148.0969 -54.0000
54.1872 148.0969 -55.0000
54.1872 148.0969 -56.0000
53.2196 145.4523 -57.0000
53.2196 145.4523 -58.0000
53.2196 145.4523 -59.0000
52.2520 142.8078 -60.0000
52.2520 142.8078 -61.0000
52.2520 142.8078 -62.0000
51.2844 140.1632 -63.0000
51.2844 140.1632 -64.0000
51.2844 140.1632 -65.0000
50.3167 137.5186 -66.0000
50.3167 137.5186 -67.0000
50.3167 137.5186 -68.0000
49.3491 134.8740 -69.0000
49.3491 134.8740 -70.0000
48.3815 132.2294 -71.0000
48.3815 132.2294 -72.0000
48.3815 132.2294 -73.0000
47.4138 129.5848 -74.0000
46.4462 126.9402 -75.0000
46.4462 126.9402 -76.0000
46.4462 126.9402 -77.0000
45.4786 124.2957 -78.0000
44.5110 121.6511 -79.0000
44.5110 121.6511 -80.0000
43.5433 119.0065 -81.0000
42.5757 116.3619 -82.0000
42.5757 116.3619 -83.0000
40.6404 111.0727 -84.0000
40.6404 111.0727 -85.0000
39.6728 108.4281 -86.0000
38.7052 105.7835 -87.0000
37.7375 103.1389 -88.0000
36.7699 100.4944 -89.0000
36.7699 100.4944 -90.0000
34.8347 95.2052 -91.0000
33.8670 92.5606 -92.0000
33.8670 92.5606 -93.0000
32.8994 89.9160 -94.0000
32.8994 89.9160 -95.0000
32.8994 89.9160 -96.0000
31.9318 87.2714 -97.0000
31.9318 87.2714 -98.0000
31.9318 87.2714 -99.0000
31.9318 87.2714 -100.0000
31.9318 87.2714 -101.0000
46.6671 156.5223 -31.0000
50.6901 170.0156 -32.0000
56.3224 188.9062 -33.0000
49.0809 164.6182 -34.0000
39.4256 132.2343 -35.0000
41.0349 137.6317 -36.0000
50.6901 170.0156 -37.0000
50.6901 170.0156 -38.0000
50.6901 170.0156 -39.0000
50.6901 170.0156 -40.0000
19.3105 64.7678 -41.0000
5.6322 18.8906 -42.0000
42.6441 143.0290 -43.0000
49.8855 167.3169 -44.0000
49.8855 167.3169 -45.0000
49.0809 164.6182 -46.0000
49.0809 164.6182 -47.0000
49.0809 164.6182 -48.0000
47.4717 159.2209 -49.0000
47.4717 159.2209 -50.0000
46.6671 156.5223 -51.0000
45.8625 153.8236 -52.0000
45.8625 153.8236 -53.0000
45.0579 151.1250 -54.0000
45.0579 151.1250 -55.0000
45.0579 151.1250 -56.0000
45.0579 151.1250 -57.0000
44.2533 148.4263 -58.0000
44.2533 148.4263 -59.0000
44.2533 148.4263 -60.0000
43.4487 145.7276 -61.0000
43.4487 145.7276 -62.0000
43.4487 145.7276 -63.0000
42.6441 143.0290 -64.0000
42.6441 143.0290 -65.0000
42.6441 143.0290 -66.0000
41.8395 140.3303 -67.0000
41.8395 140.3303 -68.0000
41.8395 140.3303 -69.0000
41.0349 137.6317 -70.0000
41.0349 137.6317 -71.0000
40.2303 134.9330 -72.0000
40.2303 134.9330 -73.0000
39.4256 132.2343 -74.0000
39.4256 132.2343 -75.0000
38.6210 129.5357 -76.0000
38.6210 129.5357 -77.0000
37.8164 126.8370 -78.0000
37.8164 126.8370 -79.0000
37.0118 124.1384 -80.0000
37.0118 124.1384 -81.0000
36.2072 121.4397 -82.0000
35.4026 118.7410 -83.0000
34.5980 116.0424 -84.0000
33.7934 113.3437 -85.0000
33.7934 113.3437 -86.0000
32.1842 107.9464 -87.0000
32.1842 107.9464 -88.0000
30.5750 102.5491 -89.0000
30.5750 102.5491 -90.0000
29.7704 99.8504 -91.0000
28.9658 97.1518 -92.0000
28.1612 94.4531 -93.0000
27.3566 91.7544 -94.0000
27.3566 91.7544 -95.0000
27.3566 91.7544 -96.0000
27.3566 91.7544 -97.0000
26.5520 89.0558 -98.0000
26.5520 89.0558 -99.0000
26.5520 89.0558 -100.0000
26.5520 89.0558 -101.0000
65.9776 221.2901 -115.0000
65.9776 221.2901 -116.0000
35.7609 153.5908 -31.0000
40.2310 172.7896 -32.0000
43.4239 186.5031 -33.0000
39.5924 170.0469 -34.0000
31.9294 137.1346 -35.0000
31.9294 137.1346 -36.0000
40.2310 172.7896 -37.0000
40.2310 172.7896 -38.0000
40.2310 172.7896 -39.0000
40.2310 172.7896 -40.0000
26.8207 115.1931 -41.0000
1.9158 8.2281 -42.0000
14.6875 63.0819 -43.0000
40.2310 172.7896 -44.0000
40.2310 172.7896 -45.0000
39.5924 170.0469 -46.0000
38.9538 167.3042 -47.0000
38.9538 167.3042 -48.0000
38.3152 164.5615 -49.0000
37.6767 161.8188 -50.0000
37.6767 161.8188 -51.0000
37.0381 159.0761 -52.0000
36.3995 156.3335 -53.0000
36.3995 156.3335 -54.0000
35.7609 153.5908 -55.0000
35.7609 153.5908 -56.0000
35.7609 153.5908 -57.0000
35.7609 153.5908 -58.0000
35.1223 150.8481 -59.0000
35.1223 150.8481 -60.0000
34.4837 148.1054 -61.0000
34.4837 148.1054 -62.0000
34.4837 148.1054 -63.0000
34.4837 148.1054 -64.0000
33.8451 145.3627 -65.0000
33.8451 145.3627 -66.0000
33.8451 145.3627 -67.0000
33.2065 142.6200 -68.0000
33.2065 142.6200 -69.0000
33.2065 142.6200 -70.0000
32.5680 139.8773 -71.0000
32.5680 139.8773 -72.0000
31.9294 137.1346 -73.0000
31.9294 137.1346 -74.0000
31.2908 134.3919 -75.0000
31.2908 134.3919 -76.0000
30.6522 131.6492 -77.0000
30.6522 131.6492 -78.0000
30.0136 128.9065 -79.0000
29.3750 126.1638 -80.0000
29.3750 126.1638 -81.0000
28.7364 123.4211 -82.0000
28.0979 120.6785 -83.0000
28.0979 120.6785 -84.0000
27.4593 117.9358 -85.0000
26.8207 115.1931 -86.0000
26.1821 112.4504 -87.0000
25.5435 109.7077 -88.0000
24.9049 106.9650 -89.0000
24.2663 104.2223 -90.0000
23.6277 101.4796 -91.0000
22.9892 98.7369 -92.0000
22.3506 95.9942 -93.0000
22.3506 95.9942 -94.0000
21.7120 93.2515 -95.0000
21.7120 93.2515 -96.0000
21.7120 93.2515 -97.0000
21.7120 93.2515 -98.0000
21.0734 90.5088 -99.0000
21.0734 90.5088 -100.0000
21.0734 90.5088 -101.0000
30.0924 177.6974 -32.0000
26.3309 155.4852 -33.0000
26.8011 158.2617 -34.0000
24.9203 147.1556 -35.0000
24.4501 144.3791 -36.0000
29.6222 174.9209 -37.0000
29.6222 174.9209 -38.0000
30.0924 177.6974 -39.0000
30.0924 177.6974 -40.0000
30.0924 177.6974 -41.0000
-3.2914 -19.4357 -42.0000
-4.2317 -24.9887 -43.0000
17.3972 102.7313 -44.0000
29.6222 174.9209 -45.0000
29.6222 174.9209 -46.0000
29.6222 174.9209 -47.0000
29.1520 172.1443 -48.0000
28.6819 169.3678 -49.0000
28.2117 166.5913 -50.0000
27.7415 163.8148 -51.0000
27.2713 161.0382 -52.0000
27.2713 161.0382 -53.0000
26.8011 158.2617 -54.0000
26.8011 158.2617 -55.0000
26.8011 158.2617 -56.0000
26.3309 155.4852 -57.0000
26.3309 155.4852 -58.0000
26.3309 155.4852 -59.0000
25.8607 152.7087 -60.0000
25.8607 152.7087 -61.0000
25.8607 152.7087 -62.0000
25.3905 149.9322 -63.0000
25.3905 149.9322 -64.0000
25.3905 149.9322 -65.0000
25.3905 149.9322 -66.0000
24.9203 147.1556 -67.0000
24.9203 147.1556 -68.0000
24.4501 144.3791 -69.0000
24.4501 144.3791 -70.0000
24.4501 144.3791 -71.0000
23.9799 141.6026 -72.0000
23.9799 141.6026 -73.0000
23.5097 138.8261 -74.0000
23.5097 138.8261 -75.0000
23.0395 136.0495 -76.0000
23.0395 136.0495 -77.0000
22.5693 133.2730 -78.0000
22.5693 133.2730 -79.0000
22.0991 130.4965 -80.0000
21.6289 127.7200 -81.0000
21.6289 127.7200 -82.0000
21.1587 124.9435 -83.0000
20.6886 122.1669 -84.0000
20.2184 119.3904 -85.0000
19.7482 116.6139 -86.0000
19.7482 116.6139 -87.0000
18.8078 111.0609 -88.0000
18.8078 111.0609 -89.0000
17.8674 105.5078 -90.0000
17.8674 105.5078 -91.0000
16.9270 99.9548 -92.0000
16.9270 99.9548 -93.0000
16.4568 97.1783 -94.0000
16.4568 97.1783 -95.0000
15.9866 94.4017 -96.0000
15.9866 94.4017 -97.0000
15.9866 94.4017 -98.0000
15.9866 94.4017 -99.0000
15.9866 94.4017 -100.0000
15.5164 91.6252 -101.0000
15.5164 91.6252 -102.0000
13.5023 126.0010 -33.0000
13.2023 123.2010 -34.0000
17.7031 165.2013 -35.0000
19.2033 179.2014 -36.0000
19.2033 179.2014 -37.0000
19.2033 179.2014 -38.0000
19.2033 179.2014 -39.0000
19.2033 179.2014 -40.0000
2.7005 25.2002 -41.0000
1.5003 14.0001 -42.0000
-1.5003 -14.0001 -43.0000
0.3001 2.8000 -44.0000
14.4025 134.4010 -45.0000
19.2033 179.2014 -46.0000
18.9033 176.4014 -47.0000
18.9033 176.4014 -48.0000
18.6032 173.6013 -49.0000
18.3032 170.8013 -50.0000
18.0031 168.0013 -51.0000
18.0031 168.0013 -52.0000
17.7031 165.2013 -53.0000
17.4030 162.4013 -54.0000
17.4030 162.4013 -55.0000
17.4030 162.4013 -56.0000
17.1030 159.6012 -57.0000
17.1030 159.6012 -58.0000
16.8029 156.8012 -59.0000
16.8029 156.8012 -60.0000
16.8029 156.8012 -61.0000
16.8029 156.8012 -62.0000
16.5029 154.0012 -63.0000
16.5029 154.0012 -64.0000
16.2028 151.2012 -65.0000
16.2028 151.2012 -66.0000
16.2028 151.2012 -67.0000
16.2028 151.2012 -68.0000
15.9028 148.4012 -69.0000
15.9028 148.4012 -70.0000
15.6027 145.6011 -71.0000
15.6027 145.6011 -72.0000
15.3027 142.8011 -73.0000
15.3027 142.8011 -74.0000
15.0026 140.0011 -75.0000
15.0026 140.0011 -76.0000
14.7026 137.2011 -77.0000
14.7026 137.2011 -78.0000
14.4025 134.4010 -79.0000
14.4025 134.4010 -80.0000
14.1024 131.6010 -81.0000
13.8024 128.8010 -82.0000
13.8024 128.8010 -83.0000
13.5023 126.0010 -84.0000
13.2023 123.2010 -85.0000
12.9022 120.4009 -86.0000
12.6022 117.6009 -87.0000
12.6022 117.6009 -88.0000
12.0021 112.0009 -89.0000
12.0021 112.0009 -90.0000
11.4020 106.4008 -91.0000
11.4020 106.4008 -92.0000
10.8019 100.8008 -93.0000
10.8019 100.8008 -94.0000
10.5018 98.0008 -95.0000
10.5018 98.0008 -96.0000
10.5018 98.0008 -97.0000
10.2018 95.2007 -98.0000
10.2018 95.2007 -99.0000
10.2018 95.2007 -100.0000
10.2018 95.2007 -101.0000
9.9017 92.4007 -102.0000
10.2018 95.2007 -103.0000
6.6973 146.2815 -29.0000
2.8335 61.8883 -32.0000
2.8335 61.8883 -33.0000
5.1517 112.5242 -34.0000
7.3412 160.3470 -35.0000
9.0155 196.9174 -36.0000
8.2428 180.0388 -37.0000
8.2428 180.0388 -38.0000
8.3716 182.8519 -39.0000
8.3716 182.8519 -40.0000
1.0303 22.5049 -41.0000
0.1288 2.8131 -42.0000
0.5152 11.2524 -43.0000
0.1288 2.8131 -44.0000
4.3790 95.6456 -45.0000
8.3716 182.8519 -46.0000
8.2428 180.0388 -47.0000
8.2428 180.0388 -48.0000
8.1140 177.2257 -49.0000
7.9852 174.4126 -50.0000
7.8564 171.5995 -51.0000
7.7276 168.7864 -52.0000
7.7276 168.7864 -53.0000
7.5988 165.9733 -54.0000
7.4700 163.1602 -55.0000
7.4700 163.1602 -56.0000
7.4700 163.1602 -57.0000
7.3412 160.3470 -58.0000
7.3412 160.3470 -59.0000
7.2124 157.5339 -60.0000
7.2124 157.5339 -61.0000
7.2124 157.5339 -62.0000
7.2124 157.5339 -63.0000
7.0836 154.7208 -64.0000
7.0836 154.7208 -65.0000
6.9548 151.9077 -66.0000
6.9548 151.9077 -67.0000
6.9548 151.9077 -68.0000
6.9548 151.9077 -69.0000
6.8261 149.0946 -70.0000
6.8261 149.0946 -71.0000
6.6973 146.2815 -72.0000
6.6973 146.2815 -73.0000
6.5685 143.4684 -74.0000
6.5685 143.4684 -75.0000
6.4397 140.6553 -76.0000
6.4397 140.6553 -77.0000
6.3109 137.8422 -78.0000
6.3109 137.8422 -79.0000
6.1821 135.0291 -80.0000
6.1821 135.0291 -81.0000
6.0533 132.2160 -82.0000
5.9245 129.4029 -83.0000
5.7957 126.5898 -84.0000
5.6669 123.7767 -85.0000
5.6669 123.7767 -86.0000
5.4093 118.1505 -87.0000
5.4093 118.1505 -88.0000
5.2805 115.3373 -89.0000
5.1517 112.5242 -90.0000
5.0229 109.7111 -91.0000
4.8942 106.8980 -92.0000
4.7654 104.0849 -93.0000
4.6366 101.2718 -94.0000
4.5078 98.4587 -95.0000
4.5078 98.4587 -96.0000
4.5078 98.4587 -97.0000
4.5078 98.4587 -98.0000
4.3790 95.6456 -99.0000
4.3790 95.6456 -100.0000
4.3790 95.6456 -101.0000
4.3790 95.6456 -102.0000
4.3790 95.6456 -103.0000
-2.3190 152.0492 -29.0000
-0.9448 61.9460 -32.0000
-0.9018 59.1302 -33.0000
-1.7178 112.6290 -34.0000
-2.0613 135.1548 -35.0000
-3.0491 199.9165 -36.0000
-2.8773 188.6536 -37.0000
-2.7914 183.0222 -38.0000
-2.7914 183.0222 -39.0000
-1.0307 67.5774 -40.0000
-0.2577 16.8944 -41.0000
-0.0859 5.6315 -42.0000
-0.2147 14.0786 -43.0000
0.0429 -2.8157 -44.0000
-0.9018 59.1302 -45.0000
-1.8466 121.0762 -46.0000
-2.7914 183.0222 -47.0000
-2.7484 180.2064 -48.0000
-2.7484 180.2064 -49.0000
-2.7055 177.3907 -50.0000
-2.6626 174.5750 -51.0000
-2.6196 171.7592 -52.0000
-2.6196 171.7592 -53.0000
-2.5337 166.1278 -54.0000
-2.5337 166.1278 -55.0000
-2.4908 163.3121 -56.0000
-2.4908 163.3121 -57.0000
-2.4908 163.3121 -58.0000
-2.4908 163.3121 -59.0000
-2.4478 160.4964 -60.0000
-2.4478 160.4964 -61.0000
-2.4049 157.6806 -62.0000
-2.4049 157.6806 -63.0000
-2.4049 157.6806 -64.0000
-2.4049 157.6806 -65.0000
-2.3619 154.8649 -66.0000
-2.3619 154.8649 -67.0000
-2.3190 152.0492 -68.0000
-2.3190 152.0492 -69.0000
-2.3190 152.0492 -70.0000
-2.2761 149.2335 -71.0000
-2.2761 149.2335 -72.0000
-2.2331 146.4177 -73.0000
-2.2331 146.4177 -74.0000
-2.1902 143.6020 -75.0000
-2.1902 143.6020 -76.0000
-2.1472 140.7863 -77.0000
-2.1472 140.7863 -78.0000
-2.1043 137.9705 -79.0000
-2.1043 137.9705 -80.0000
-2.0613 135.1548 -81.0000
-2.0184 132.3391 -82.0000
-1.9754 129.5234 -83.0000
-1.9754 129.5234 -84.0000
-1.9325 126.7076 -85.0000
-1.8896 123.8919 -86.0000
-1.8466 121.0762 -87.0000
-1.8037 118.2605 -88.0000
-1.8037 118.2605 -89.0000
-1.7178 112.6290 -90.0000
-1.6748 109.8133 -91.0000
-1.6319 106.9976 -92.0000
-1.5889 104.1818 -93.0000
-1.5460 101.3661 -94.0000
-1.5460 101.3661 -95.0000
-1.5031 98.5504 -96.0000
-1.5031 98.5504 -97.0000
-1.5031 98.5504 -98.0000
-1.5031 98.5504 -99.0000
-1.4601 95.7347 -100.0000
-1.4601 95.7347 -101.0000
-1.4601 95.7347 -102.0000
-1.4601 95.7347 -103.0000
-11.5842 151.6250 -29.0000
-4.7195 61.7731 -32.0000
-4.5050 58.9653 -33.0000
-4.2904 56.1574 -34.0000
-14.1585 185.3194 -35.0000
-14.8020 193.7430 -36.0000
-15.2311 199.3588 -37.0000
-13.9440 182.5116 -38.0000
-13.9440 182.5116 -39.0000
-2.1452 28.0787 -40.0000
-1.2871 16.8472 -41.0000
-1.0726 14.0394 -42.0000
-1.0726 14.0394 -43.0000
-1.9307 25.2708 -44.0000
0.0000 0.0000 -45.0000
-1.5017 19.6551 -46.0000
-13.9440 182.5116 -47.0000
-13.9440 182.5116 -48.0000
-13.9440 182.5116 -49.0000
-13.7294 179.7037 -50.0000
-13.5149 176.8958 -51.0000
-13.3004 174.0879 -52.0000
-13.0859 171.2801 -53.0000
-12.8713 168.4722 -54.0000
-12.6568 165.6643 -55.0000
-12.6568 165.6643 -56.0000
-12.6568 165.6643 -57.0000
-12.4423 162.8565 -58.0000
-12.4423 162.8565 -59.0000
-12.4423 162.8565 -60.0000
-12.2278 160.0486 -61.0000
-12.2278 160.0486 -62.0000
-12.2278 160.0486 -63.0000
-12.0133 157.2407 -64.0000
-12.0133 157.2407 -65.0000
-12.0133 157.2407 -66.0000
-11.7987 154.4328 -67.0000
-11.7987 154.4328 -68.0000
-11.5842 151.6250 -69.0000
-11.5842 151.6250 -70.0000
-11.5842 151.6250 -71.0000
-11.3697 148.8171 -72.0000
-11.3697 148.8171 -73.0000
-11.1552 146.0092 -74.0000
-11.1552 146.0092 -75.0000
-10.9406 143.2014 -76.0000
-10.9406 143.2014 -77.0000
-10.7261 140.3935 -78.0000
-10.7261 140.3935 -79.0000
-10.5116 137.5856 -80.0000
-10.2971 134.7778 -81.0000
-10.2971 134.7778 -82.0000
-10.0826 131.9699 -83.0000
-9.8680 129.1620 -84.0000
-9.8680 129.1620 -85.0000
-9.4390 123.5463 -86.0000
-9.4390 123.5463 -87.0000
-9.2245 120.7384 -88.0000
-9.0099 117.9305 -89.0000
-8.7954 115.1227 -90.0000
-8.5809 112.3148 -91.0000
-8.1519 106.6991 -92.0000
-8.1519 106.6991 -93.0000
-7.9373 103.8912 -94.0000
-7.7228 101.0833 -95.0000
-7.5083 98.2755 -96.0000
-7.5083 98.2755 -97.0000
-7.5083 98.2755 -98.0000
-7.5083 98.2755 -99.0000
-7.5083 98.2755 -100.0000
-7.2938 95.4676 -101.0000
-7.2938 95.4676 -102.0000
-7.2938 95.4676 -103.0000
-8.4766 61.3705 -33.0000
-25.4300 184.1116 -36.0000
-27.7418 200.8490 -37.0000
-26.9712 195.2699 -38.0000
-25.0447 181.3220 -39.0000
-6.5501 47.4227 -40.0000
-3.0824 22.3166 -41.0000
-3.0824 22.3166 -42.0000
-3.8530 27.8957 -43.0000
-5.3942 39.0540 -44.0000
-0.7706 5.5791 -45.0000
-2.6971 19.5270 -46.0000
-18.8798 136.6889 -47.0000
-25.0447 181.3220 -48.0000
-25.0447 181.3220 -49.0000
-25.0447 181.3220 -50.0000
-24.6593 178.5324 -51.0000
-24.2740 175.7429 -52.0000
-23.8887 172.9533 -53.0000
-23.5034 170.1637 -54.0000
-23.1181 167.3742 -55.0000
-23.1181 167.3742 -56.0000
-22.7328 164.5846 -57.0000
-22.7328 164.5846 -58.0000
-22.3475 161.7950 -59.0000
-22.3475 161.7950 -60.0000
-22.3475 161.7950 -61.0000
-22.3475 161.7950 -62.0000
-21.9622 159.0054 -63.0000
-21.9622 159.0054 -64.0000
-21.5769 156.2159 -65.0000
-21.5769 156.2159 -66.0000
-21.5769 156.2159 -67.0000
-21.1916 153.4263 -68.0000
-21.1916 153.4263 -69.0000
-21.1916 153.4263 -70.0000
-20.8063 150.6367 -71.0000
-20.8063 150.6367 -72.0000
-20.4210 147.8472 -73.0000
-20.4210 147.8472 -74.0000
-20.0357 145.0576 -75.0000
-20.0357 145.0576 -76.0000
-19.6504 142.2680 -77.0000
-19.6504 142.2680 -78.0000
-19.2651 139.4785 -79.0000
-19.2651 139.4785 -80.0000
-18.8798 136.6889 -81.0000
-18.4945 133.8993 -82.0000
-18.4945 133.8993 -83.0000
-18.1092 131.1098 -84.0000
-17.7239 128.3202 -85.0000
-17.3386 125.5306 -86.0000
-16.9533 122.7410 -87.0000
-16.5680 119.9515 -88.0000
-16.1827 117.1619 -89.0000
-15.7974 114.3723 -90.0000
-15.4121 111.5828 -91.0000
-15.0268 108.7932 -92.0000
-14.6415 106.0036 -93.0000
-14.2562 103.2141 -94.0000
-13.8709 100.4245 -95.0000
-13.8709 100.4245 -96.0000
-13.4856 97.6349 -97.0000
-13.4856 97.6349 -98.0000
-13.4856 97.6349 -99.0000
-13.4856 97.6349 -100.0000
-13.4856 97.6349 -101.0000
-13.4856 97.6349 -102.0000
-13.1003 94.8454 -103.0000
-12.7569 63.5005 -32.0000
-12.2023 60.7396 -33.0000
-36.6068 182.2188 -37.0000
-39.3801 196.0233 -38.0000
-36.6068 182.2188 -39.0000
-5.5465 27.6089 -40.0000
-3.3279 16.5653 -41.0000
-3.3279 16.5653 -42.0000
-3.3279 16.5653 -43.0000
-7.2104 35.8916 -44.0000
-9.4290 46.9351 -45.0000
-0.5546 2.7609 -46.0000
-13.3116 66.2614 -47.0000
-36.6068 182.2188 -48.0000
-36.6068 182.2188 -49.0000
-36.0522 179.4579 -50.0000
-36.0522 179.4579 -51.0000
-35.4975 176.6970 -52.0000
-34.9429 173.9361 -53.0000
-34.3882 171.1752 -54.0000
-33.8336 168.4143 -55.0000
-33.8336 168.4143 -56.0000
-33.2789 165.6535 -57.0000
-32.7243 162.8926 -58.0000
-32.7243 162.8926 -59.0000
-32.7243 162.8926 -60.0000
-32.1696 160.1317 -61.0000
-32.1696 160.1317 -62.0000
-32.1696 160.1317 -63.0000
-31.6150 157.3708 -64.0000
-31.6150 157.3708 -65.0000
-31.6150 157.3708 -66.0000
-31.0603 154.6099 -67.0000
-31.0603 154.6099 -68.0000
-31.0603 154.6099 -69.0000
-30.5057 151.8490 -70.0000
-30.5057 151.8490 -71.0000
-29.9510 149.0881 -72.0000
-29.9510 149.0881 -73.0000
-29.9510 149.0881 -74.0000
-29.3964 146.3272 -75.0000
-28.8417 143.5663 -76.0000
-28.8417 143.5663 -77.0000
-28.2871 140.8054 -78.0000
-28.2871 140.8054 -79.0000
-27.7324 138.0445 -80.0000
-27.7324 138.0445 -81.0000
-27.1778 135.2836 -82.0000
-26.6231 132.5228 -83.0000
-26.0685 129.7619 -84.0000
-25.5138 127.0010 -85.0000
-25.5138 127.0010 -86.0000
-24.9592 124.2401 -87.0000
-24.4045 121.4792 -88.0000
-23.8499 118.7183 -89.0000
-23.2953 115.9574 -90.0000
-22.1860 110.4356 -91.0000
-21.6313 107.6747 -92.0000
-21.0767 104.9139 -93.0000
-20.5220 102.1530 -94.0000
-20.5220 102.1530 -95.0000
-19.9674 99.3921 -96.0000
-19.9674 99.3921 -97.0000
-19.4127 96.6312 -98.0000
-19.4127 96.6312 -99.0000
-19.4127 96.6312 -100.0000
-19.4127 96.6312 -101.0000
-19.4127 96.6312 -102.0000
-18.8581 93.8703 -103.0000
-39.7063 149.7068 -28.0000
-17.3264 65.3266 -31.0000
-16.6044 62.6047 -32.0000
-48.3694 182.3701 -37.0000
-52.7010 198.7018 -38.0000
-24.5457 92.5460 -39.0000
-1.4439 5.4439 -40.0000
-6.4974 24.4975 -41.0000
-6.4974 24.4975 -42.0000
-9.3851 35.3853 -43.0000
-15.8825 59.8827 -44.0000
-12.2728 46.2730 -45.0000
-20.9360 78.9363 -46.0000
-29.5992 111.5996 -47.0000
-48.3694 182.3701 -48.0000
-48.3694 182.3701 -49.0000
-47.6475 179.6482 -50.0000
-47.6475 179.6482 -51.0000
-46.9256 176.9262 -52.0000
-46.2036 174.2043 -53.0000
-45.4817 171.4823 -54.0000
-44.7598 168.7604 -55.0000
-44.0378 166.0385 -56.0000
-44.0378 166.0385 -57.0000
-43.3159 163.3165 -58.0000
-43.3159 163.3165 -59.0000
-42.5940 160.5946 -60.0000
-42.5940 160.5946 -61.0000
-41.8721 157.8726 -62.0000
-41.8721 157.8726 -63.0000
-41.8721 157.8726 -64.0000
-41.8721 157.8726 -65.0000
-41.1501 155.1507 -66.0000
-41.1501 155.1507 -67.0000
-40.4282 152.4288 -68.0000
-40.4282 152.4288 -69.0000
-40.4282 152.4288 -70.0000
-39.7063 149.7068 -71.0000
-39.7063 149.7068 -72.0000
-38.9843 146.9849 -73.0000
-38.9843 146.9849 -74.0000
-38.9843 146.9849 -75.0000
-38.2624 144.2629 -76.0000
-37.5405 141.5410 -77.0000
-37.5405 141.5410 -78.0000
-36.8185 138.8190 -79.0000
-36.8185 138.8190 -80.0000
-36.0966 136.0971 -81.0000
-35.3747 133.3752 -82.0000
-34.6527 130.6532 -83.0000
-34.6527 130.6532 -84.0000
-33.9308 127.9313 -85.0000
-33.2089 125.2093 -86.0000
-33.2089 125.2093 -87.0000
-31.7650 119.7654 -88.0000
-31.0431 117.0435 -89.0000
-30.3211 114.3216 -90.0000
-29.5992 111.5996 -91.0000
-28.8773 108.8777 -92.0000
-27.4334 103.4338 -93.0000
-27.4334 103.4338 -94.0000
-26.7115 100.7119 -95.0000
-25.9896 97.9899 -96.0000
-25.9896 97.9899 -97.0000
-25.9896 97.9899 -98.0000
-25.2676 95.2680 -99.0000
-25.2676 95.2680 -100.0000
-25.2676 95.2680 -101.0000
-25.2676 95.2680 -102.0000
-25.2676 95.2680 -103.0000
-25.2676 95.2680 -104.0000
-21.2767 64.1488 -31.0000
-20.3902 61.4760 -32.0000
-59.3975 179.0821 -38.0000
-24.8228 74.8403 -39.0000
-18.6171 56.1302 -40.0000
-7.9788 24.0558 -41.0000
-7.9788 24.0558 -42.0000
-15.0710 45.4387 -43.0000
-17.7306 53.4574 -44.0000
-17.7306 53.4574 -45.0000
-21.2767 64.1488 -46.0000
-26.5959 80.1860 -47.0000
-59.3975 179.0821 -48.0000
-59.3975 179.0821 -49.0000
-59.3975 179.0821 -50.0000
-58.5110 176.4092 -51.0000
-58.5110 176.4092 -52.0000
-57.6244 173.7364 -53.0000
-56.7379 171.0635 -54.0000
-55.8514 168.3906 -55.0000
-55.8514 168.3906 -56.0000
-54.0783 163.0449 -57.0000
-54.0783 163.0449 -58.0000
-53.1918 160.3720 -59.0000
-53.1918 160.3720 -60.0000
-52.3053 157.6992 -61.0000
-52.3053 157.6992 -62.0000
-52.3053 157.6992 -63.0000
-51.4187 155.0263 -64.0000
-51.4187 155.0263 -65.0000
-51.4187 155.0263 -66.0000
-50.5322 152.3534 -67.0000
-50.5322 152.3534 -68.0000
-49.6457 149.6806 -69.0000
-49.6457 149.6806 -70.0000
-49.6457 149.6806 -71.0000
-48.7591 147.0077 -72.0000
-48.7591 147.0077 -73.0000
-47.8726 144.3348 -74.0000
-47.8726 144.3348 -75.0000
-47.8726 144.3348 -76.0000
-46.9861 141.6620 -77.0000
-46.0995 138.9891 -78.0000
-46.0995 138.9891 -79.0000
-45.2130 136.3162 -80.0000
-44.3265 133.6434 -81.0000
-44.3265 133.6434 -82.0000
-43.4400 130.9705 -83.0000
-42.5534 128.2976 -84.0000
-42.5534 128.2976 -85.0000
-41.6669 125.6248 -86.0000
-40.7804 122.9519 -87.0000
-39.8938 120.2790 -88.0000
-39.0073 117.6062 -89.0000
-37.2343 112.2604 -90.0000
-37.2343 112.2604 -91.0000
-35.4612 106.9147 -92.0000
-34.5747 104.2418 -93.0000
-33.6881 101.5690 -94.0000
-32.8016 98.8961 -95.0000
-32.8016 98.8961 -96.0000
-31.9151 96.2232 -97.0000
-31.9151 96.2232 -98.0000
-31.0285 93.5504 -99.0000
-31.0285 93.5504 -100.0000
-31.0285 93.5504 -101.0000
-31.0285 93.5504 -102.0000
-31.0285 93.5504 -103.0000
-31.0285 93.5504 -104.0000
-58.6784 146.3755 -28.0000
-26.1957 65.3462 -31.0000
-71.2524 177.7417 -38.0000
-12.5740 31.3662 -39.0000
-29.3392 73.1878 -40.0000
-6.2870 15.6831 -41.0000
-10.4783 26.1385 -42.0000
-20.9566 52.2770 -43.0000
-26.1957 65.3462 -44.0000
-27.2436 67.9601 -45.0000
-40.8653 101.9401 -46.0000
-29.3392 73.1878 -47.0000
-71.2524 177.7417 -48.0000
-70.2046 175.1279 -49.0000
-70.2046 175.1279 -50.0000
-70.2046 175.1279 -51.0000
-70.2046 175.1279 -52.0000
-69.1567 172.5141 -53.0000
-68.1089 169.9002 -54.0000
-67.0611 167.2863 -55.0000
-66.0132 164.6725 -56.0000
-66.0132 164.6725 -57.0000
-63.9176 159.4448 -58.0000
-63.9176 159.4448 -59.0000
-62.8698 156.8310 -60.0000
-62.8698 156.8310 -61.0000
-62.8698 156.8310 -62.0000
-61.8219 154.2171 -63.0000
-61.8219 154.2171 -64.0000
-60.7741 151.6033 -65.0000
-60.7741 151.6033 -66.0000
-60.7741 151.6033 -67.0000
-59.7263 148.9894 -68.0000
-59.7263 148.9894 -69.0000
-58.6784 146.3755 -70.0000
-58.6784 146.3755 -71.0000
-58.6784 146.3755 -72.0000
-57.6306 143.7617 -73.0000
-57.6306 143.7617 -74.0000
-56.5828 141.1479 -75.0000
-56.5828 141.1479 -76.0000
-55.5350 138.5340 -77.0000
-55.5350 138.5340 -78.0000
-54.4871 135.9202 -79.0000
-54.4871 135.9202 -80.0000
-53.4393 133.3063 -81.0000
-52.3915 130.6925 -82.0000
-52.3915 130.6925 -83.0000
-51.3436 128.0786 -84.0000
-50.2958 125.4648 -85.0000
-49.2480 122.8509 -86.0000
-48.2002 120.2371 -87.0000
-47.1523 117.6232 -88.0000
-46.1045 115.0094 -89.0000
-45.0567 112.3955 -90.0000
-44.0088 109.7817 -91.0000
-41.9132 104.5540 -92.0000
-41.9132 104.5540 -93.0000
-39.8175 99.3263 -94.0000
-39.8175 99.3263 -95.0000
-38.7697 96.7124 -96.0000
-37.7219 94.0986 -97.0000
-37.7219 94.0986 -98.0000
-37.7219 94.0986 -99.0000
-36.6740 91.4847 -100.0000
-36.6740 91.4847 -101.0000
-36.6740 91.4847 -102.0000
-36.6740 91.4847 -103.0000
-36.6740 91.4847 -104.0000
-68.6982 145.0711 -27.0000
-34.9517 73.8081 -31.0000
4.8209 -10.1804 -39.0000
-28.9255 61.0826 -40.0000
-34.9517 73.8081 -41.0000
-21.6942 45.8119 -42.0000
-27.7203 58.5375 -43.0000
-33.7465 71.2630 -44.0000
-33.7465 71.2630 -45.0000
-57.8511 122.1652 -46.0000
-22.8994 48.3570 -47.0000
-81.9557 173.0673 -48.0000
-81.9557 173.0673 -49.0000
-81.9557 173.0673 -50.0000
-80.7505 170.5222 -51.0000
-80.7505 170.5222 -52.0000
-80.7505 170.5222 -53.0000
-79.5452 167.9771 -54.0000
-78.3400 165.4320 -55.0000
-77.1348 162.8869 -56.0000
-75.9295 160.3418 -57.0000
-75.9295 160.3418 -58.0000
-73.5191 155.2516 -59.0000
-73.5191 155.2516 -60.0000
-72.3139 152.7065 -61.0000
-72.3139 152.7065 -62.0000
-72.3139 152.7065 -63.0000
-71.1086 150.1613 -64.0000
-71.1086 150.1613 -65.0000
-69.9034 147.6162 -66.0000
-69.9034 147.6162 -67.0000
-69.9034 147.6162 -68.0000
-69.9034 147.6162 -69.0000
-68.6982 145.0711 -70.0000
-68.6982 145.0711 -71.0000
-67.4929 142.5260 -72.0000
-67.4929 142.5260 -73.0000
-66.2877 139.9809 -74.0000
-66.2877 139.9809 -75.0000
-65.0825 137.4358 -76.0000
-65.0825 137.4358 -77.0000
-63.8772 134.8907 -78.0000
-63.8772 134.8907 -79.0000
-62.6720 132.3456 -80.0000
-62.6720 132.3456 -81.0000
-61.4668 129.8005 -82.0000
-60.2615 127.2554 -83.0000
-60.2615 127.2554 -84.0000
-59.0563 124.7103 -85.0000
-57.8511 122.1652 -86.0000
-56.6459 119.6201 -87.0000
-55.4406 117.0750 -88.0000
-54.2354 114.5298 -89.0000
-53.0302 111.9847 -90.0000
-50.6197 106.8945 -91.0000
-49.4145 104.3494 -92.0000
-48.2092 101.8043 -93.0000
-47.0040 99.2592 -94.0000
-45.7988 96.7141 -95.0000
-44.5935 94.1690 -96.0000
-43.3883 91.6239 -97.0000
-43.3883 91.6239 -98.0000
-43.3883 91.6239 -99.0000
-43.3883 91.6239 -100.0000
-42.1831 89.0788 -101.0000
-42.1831 89.0788 -102.0000
-42.1831 89.0788 -103.0000
-42.1831 89.0788 -104.0000
-33.9537 61.6725 -30.0000
-35.3119 64.1393 -31.0000
92.3541 -167.7491 -38.0000
46.1771 -83.8745 -39.0000
12.2233 -22.2021 -40.0000
-36.6700 66.6063 -41.0000
-29.8793 54.2718 -42.0000
-35.3119 64.1393 -43.0000
-43.4608 78.9407 -44.0000
-44.8189 81.4076 -45.0000
-77.4145 140.6132 -46.0000
-39.3863 71.5400 -47.0000
-93.7123 170.2160 -48.0000
-93.7123 170.2160 -49.0000
-92.3541 167.7491 -50.0000
-92.3541 167.7491 -51.0000
-92.3541 167.7491 -52.0000
-90.9960 165.2822 -53.0000
-90.9960 165.2822 -54.0000
-89.6378 162.8153 -55.0000
-88.2797 160.3484 -56.0000
-86.9215 157.8815 -57.0000
-85.5634 155.4146 -58.0000
-84.2052 152.9477 -59.0000
-82.8471 150.4808 -60.0000
-82.8471 150.4808 -61.0000
-81.4889 148.0139 -62.0000
-81.4889 148.0139 -63.0000
-81.4889 148.0139 -64.0000
-80.1308 145.5470 -65.0000
-80.1308 145.5470 -66.0000
-78.7726 143.0801 -67.0000
-78.7726 143.0801 -68.0000
-78.7726 143.0801 -69.0000
-78.7726 143.0801 -70.0000
-77.4145 140.6132 -71.0000
-77.4145 140.6132 -72.0000
-76.0563 138.1463 -73.0000
-76.0563 138.1463 -74.0000
-74.6982 135.6794 -75.0000
-74.6982 135.6794 -76.0000
-73.3400 133.2125 -77.0000
-73.3400 133.2125 -78.0000
-71.9819 130.7456 -79.0000
-71.9819 130.7456 -80.0000
-70.6237 128.2787 -81.0000
-69.2656 125.8118 -82.0000
-69.2656 125.8118 -83.0000
-67.9074 123.3449 -84.0000
-66.5493 120.8780 -85.0000
-65.1911 118.4111 -86.0000
-63.8330 115.9442 -87.0000
-62.4749 113.4773 -88.0000
-62.4749 113.4773 -89.0000
-59.7586 108.5435 -90.0000
-58.4004 106.0766 -91.0000
-57.0423 103.6097 -92.0000
-54.3260 98.6759 -93.0000
-52.9678 96.2090 -94.0000
-51.6097 93.7421 -95.0000
-50.2515 91.2752 -96.0000
-50.2515 91.2752 -97.0000
-48.8934 88.8083 -98.0000
-48.8934 88.8083 -99.0000
-48.8934 88.8083 -100.0000
-48.8934 88.8083 -101.0000
-48.8934 88.8083 -102.0000
-47.5352 86.3414 -103.0000
-47.5352 86.3414 -104.0000
-39.1564 61.8673 -30.0000
-36.1443 57.1083 -31.0000
-36.1443 57.1083 -34.0000
67.7707 -107.0780 -38.0000
102.4090 -161.8068 -39.0000
21.0842 -33.3132 -40.0000
-15.0602 23.7951 -41.0000
-58.7346 92.8009 -42.0000
-60.2406 95.1805 -43.0000
-60.2406 95.1805 -44.0000
-52.7105 83.2829 -45.0000
-63.2526 99.9395 -46.0000
-63.2526 99.9395 -47.0000
-103.9150 164.1863 -48.0000
-103.9150 164.1863 -49.0000
-103.9150 164.1863 -50.0000
-103.9150 164.1863 -51.0000
-103.9150 164.1863 -52.0000
-102.4090 161.8068 -53.0000
-102.4090 161.8068 -54.0000
-100.9030 159.4273 -55.0000
-99.3970 157.0477 -56.0000
-97.8910 154.6682 -57.0000
-96.3849 152.2887 -58.0000
-94.8789 149.9092 -59.0000
-93.3729 147.5297 -60.0000
-91.8669 145.1502 -61.0000
-91.8669 145.1502 -62.0000
-91.8669 145.1502 -63.0000
-90.3609 142.7707 -64.0000
-90.3609 142.7707 -65.0000
-88.8549 140.3912 -66.0000
-88.8549 140.3912 -67.0000
-88.8549 140.3912 -68.0000
-87.3488 138.0117 -69.0000
-87.3488 138.0117 -70.0000
-87.3488 138.0117 -71.0000
-85.8428 135.6321 -72.0000
-85.8428 135.6321 -73.0000
-84.3368 133.2526 -74.0000
-84.3368 133.2526 -75.0000
-82.8308 130.8731 -76.0000
-82.8308 130.8731 -77.0000
-81.3248 128.4936 -78.0000
-81.3248 128.4936 -79.0000
-79.8188 126.1141 -80.0000
-78.3128 123.7346 -81.0000
-78.3128 123.7346 -82.0000
-76.8067 121.3551 -83.0000
-75.3007 118.9756 -84.0000
-75.3007 118.9756 -85.0000
-73.7947 116.5960 -86.0000
-72.2887 114.2165 -87.0000
-70.7827 111.8370 -88.0000
-69.2767 109.4575 -89.0000
-67.7707 107.0780 -90.0000
-66.2646 104.6985 -91.0000
-63.2526 99.9395 -92.0000
-61.7466 97.5600 -93.0000
-60.2406 95.1805 -94.0000
-57.2286 90.4214 -95.0000
-57.2286 90.4214 -96.0000
-55.7225 88.0419 -97.0000
-55.7225 88.0419 -98.0000
-54.2165 85.6624 -99.0000
-54.2165 85.6624 -100.0000
-54.2165 85.6624 -101.0000
-54.2165 85.6624 -102.0000
-54.2165 85.6624 -103.0000
-54.2165 85.6624 -104.0000
-54.2165 85.6624 -105.0000
-98.8967 136.9964 -28.0000
-44.5035 61.6484 -30.0000
-44.5035 61.6484 -31.0000
112.0829 -155.2625 -37.0000
112.0829 -155.2625 -38.0000
112.0829 -155.2625 -39.0000
112.0829 -155.2625 -40.0000
-9.8897 13.6996 -41.0000
-79.1173 109.5971 -42.0000
-100.5449 139.2796 -43.0000
-82.4139 114.1636 -44.0000
-69.2277 95.8975 -45.0000
-57.6897 79.9145 -46.0000
-98.8967 136.9964 -47.0000
-87.3587 121.0135 -48.0000
-113.7312 157.5458 -49.0000
-113.7312 157.5458 -50.0000
-113.7312 157.5458 -51.0000
-113.7312 157.5458 -52.0000
-113.7312 157.5458 -53.0000
-113.7312 157.5458 -54.0000
-112.0829 155.2625 -55.0000
-110.4346 152.9793 -56.0000
-108.7863 150.6960 -57.0000
-107.1381 148.4127 -58.0000
-105.4898 146.1295 -59.0000
-103.8415 143.8462 -60.0000
-102.1932 141.5629 -61.0000
-100.5449 139.2796 -62.0000
-100.5449 139.2796 -63.0000
-100.5449 139.2796 -64.0000
-98.8967 136.9964 -65.0000
-98.8967 136.9964 -66.0000
-98.8967 136.9964 -67.0000
-97.2484 134.7131 -68.0000
-97.2484 134.7131 -69.0000
-95.6001 132.4298 -70.0000
-95.6001 132.4298 -71.0000
-95.6001 132.4298 -72.0000
-93.9518 130.1465 -73.0000
-93.9518 130.1465 -74.0000
-92.3036 127.8633 -75.0000
-92.3036 127.8633 -76.0000
-90.6553 125.5800 -77.0000
-90.6553 125.5800 -78.0000
-89.0070 123.2967 -79.0000
-89.0070 123.2967 -80.0000
-87.3587 121.0135 -81.0000
-85.7105 118.7302 -82.0000
-85.7105 118.7302 -83.0000
-84.0622 116.4469 -84.0000
-82.4139 114.1636 -85.0000
-80.7656 111.8804 -86.0000
-79.1173 109.5971 -87.0000
-77.4691 107.3138 -88.0000
-75.8208 105.0305 -89.0000
-74.1725 102.7473 -90.0000
-72.5242 100.4640 -91.0000
-69.2277 95.8975 -92.0000
-69.2277 95.8975 -93.0000
-65.9311 91.3309 -94.0000
-64.2828 89.0476 -95.0000
-62.6346 86.7644 -96.0000
-60.9863 84.4811 -97.0000
-60.9863 84.4811 -98.0000
-60.9863 84.4811 -99.0000
-59.3380 82.1978 -100.0000
-59.3380 82.1978 -101.0000
-59.3380 82.1978 -102.0000
-59.3380 82.1978 -103.0000
-59.3380 82.1978 -104.0000
-59.3380 82.1978 -105.0000
-110.6334 135.0695 -28.0000
-49.9635 60.9991 -30.0000
-51.7479 63.1777 -31.0000
121.3398 -148.1407 -37.0000
121.3398 -148.1407 -38.0000
121.3398 -148.1407 -39.0000
121.3398 -148.1407 -40.0000
23.1973 -28.3210 -41.0000
-80.2984 98.0343 -42.0000
-133.8307 163.3905 -43.0000
-132.0463 161.2120 -44.0000
-103.4957 126.3553 -45.0000
-71.3764 87.1416 -46.0000
-69.5920 84.9631 -47.0000
-80.2984 98.0343 -48.0000
-123.1242 150.3193 -49.0000
-123.1242 150.3193 -50.0000
-123.1242 150.3193 -51.0000
-123.1242 150.3193 -52.0000
-123.1242 150.3193 -53.0000
-123.1242 150.3193 -54.0000
-123.1242 150.3193 -55.0000
-119.5554 145.9622 -56.0000
-117.7710 143.7837 -57.0000
-117.7710 143.7837 -58.0000
-114.2022 139.4266 -59.0000
-114.2022 139.4266 -60.0000
-112.4178 137.2480 -61.0000
-110.6334 135.0695 -62.0000
-110.6334 135.0695 -63.0000
-108.8490 132.8909 -64.0000
-108.8490 132.8909 -65.0000
-107.0646 130.7124 -66.0000
-107.0646 130.7124 -67.0000
-107.0646 130.7124 -68.0000
-105.2801 128.5339 -69.0000
-105.2801 128.5339 -70.0000
-103.4957 126.3553 -71.0000
-103.4957 126.3553 -72.0000
-103.4957 126.3553 -73.0000
-101.7113 124.1768 -74.0000
-101.7113 124.1768 -75.0000
-99.9269 121.9983 -76.0000
-99.9269 121.9983 -77.0000
-98.1425 119.8197 -78.0000
-98.1425 119.8197 -79.0000
-96.3581 117.6412 -80.0000
-96.3581 117.6412 -81.0000
-94.5737 115.4626 -82.0000
-92.7893 113.2841 -83.0000
-92.7893 113.2841 -84.0000
-91.0049 111.1056 -85.0000
-89.2205 108.9270 -86.0000
-87.4361 106.7485 -87.0000
-85.6516 104.5699 -88.0000
-83.8672 102.3914 -89.0000
-82.0828 100.2129 -90.0000
-80.2984 98.0343 -91.0000
-78.5140 95.8558 -92.0000
-74.9452 91.4987 -93.0000
-71.3764 87.1416 -94.0000
-71.3764 87.1416 -95.0000
-67.8076 82.7845 -96.0000
-67.8076 82.7845 -97.0000
-66.0231 80.6060 -98.0000
-66.0231 80.6060 -99.0000
-66.0231 80.6060 -100.0000
-64.2387 78.4275 -101.0000
-64.2387 78.4275 -102.0000
-64.2387 78.4275 -103.0000
-64.2387 78.4275 -104.0000
-62.4543 76.2489 -105.0000
-64.2387 78.4275 -106.0000
-118.6620 128.0736 -28.0000
-53.5893 57.8397 -30.0000
130.1454 -140.4678 -37.0000
130.1454 -140.4678 -38.0000
132.0593 -142.5335 -39.0000
132.0593 -142.5335 -40.0000
-133.9732 144.5992 -42.0000
-143.5427 154.9278 -43.0000
-143.5427 154.9278 -44.0000
-132.0593 142.5335 -45.0000
-111.0063 119.8108 -46.0000
-72.7283 78.4967 -47.0000
-66.9866 72.2996 -48.0000
-132.0593 142.5335 -49.0000
-132.0593 142.5335 -50.0000
-132.0593 142.5335 -51.0000
-132.0593 142.5335 -52.0000
-132.0593 142.5335 -53.0000
-132.0593 142.5335 -54.0000
-132.0593 142.5335 -55.0000
-130.1454 140.4678 -56.0000
-128.2315 138.4021 -57.0000
-126.3176 136.3364 -58.0000
-126.3176 136.3364 -59.0000
-122.4898 132.2050 -60.0000
-120.5759 130.1393 -61.0000
-118.6620 128.0736 -62.0000
-118.6620 128.0736 -63.0000
-116.7480 126.0079 -64.0000
-116.7480 126.0079 -65.0000
-116.7480 126.0079 -66.0000
-114.8342 123.9422 -67.0000
-114.8342 123.9422 -68.0000
-114.8342 123.9422 -69.0000
-112.9202 121.8765 -70.0000
-112.9202 121.8765 -71.0000
-111.0063 119.8108 -72.0000
-111.0063 119.8108 -73.0000
-111.0063 119.8108 -74.0000
-109.0924 117.7451 -75.0000
-107.1785 115.6794 -76.0000
-107.1785 115.6794 -77.0000
-107.1785 115.6794 -78.0000
-105.2646 113.6137 -79.0000
-103.3507 111.5480 -80.0000
-103.3507 111.5480 -81.0000
-101.4368 109.4823 -82.0000
-101.4368 109.4823 -83.0000
-99.5229 107.4166 -84.0000
-97.6090 105.3509 -85.0000
-95.6951 103.2852 -86.0000
-93.7812 101.2195 -87.0000
-91.8673 99.1538 -88.0000
-89.9534 97.0881 -89.0000
-88.0395 95.0224 -90.0000
-86.1256 92.9567 -91.0000
-84.2117 90.8910 -92.0000
-82.2978 88.8253 -93.0000
-80.3839 86.7596 -94.0000
-76.5561 82.6281 -95.0000
-74.6422 80.5624 -96.0000
-72.7283 78.4967 -97.0000
-72.7283 78.4967 -98.0000
-70.8144 76.4310 -99.0000
-70.8144 76.4310 -100.0000
-68.9005 74.3653 -101.0000
-68.9005 74.3653 -102.0000
-68.9005 74.3653 -103.0000
-68.9005 74.3653 -104.0000
-68.9005 74.3653 -105.0000
-68.9005 74.3653 -106.0000
-97.7413 93.3687 -28.0000
-57.0157 54.4651 -29.0000
-57.0157 54.4651 -30.0000
138.4668 -132.2724 -36.0000
138.4668 -132.2724 -37.0000
140.5031 -134.2175 -38.0000
140.5031 -134.2175 -39.0000
-142.5394 136.1627 -42.0000
-142.5394 136.1627 -43.0000
-156.7933 149.7790 -44.0000
-148.6482 141.9983 -45.0000
-97.7413 93.3687 -46.0000
-67.1971 64.1910 -47.0000
-83.4873 79.7525 -48.0000
-142.5394 136.1627 -49.0000
-142.5394 136.1627 -50.0000
-142.5394 136.1627 -51.0000
-142.5394 136.1627 -52.0000
-142.5394 136.1627 -53.0000
-140.5031 134.2175 -54.0000
-140.5031 134.2175 -55.0000
-140.5031 134.2175 -56.0000
-138.4668 132.2724 -57.0000
-136.4305 130.3272 -58.0000
-134.3943 128.3820 -59.0000
-132.3580 126.4368 -60.0000
-130.3217 124.4916 -61.0000
-128.2854 122.5464 -62.0000
-126.2491 120.6013 -63.0000
-126.2491 120.6013 -64.0000
-124.2129 118.6561 -65.0000
-124.2129 118.6561 -66.0000
-124.2129 118.6561 -67.0000
-122.1766 116.7109 -68.0000
-122.1766 116.7109 -69.0000
-120.1403 114.7657 -70.0000
-120.1403 114.7657 -71.0000
-118.1040 112.8205 -72.0000
-118.1040 112.8205 -73.0000
-118.1040 112.8205 -74.0000
-116.0678 110.8754 -75.0000
-116.0678 110.8754 -76.0000
-114.0315 108.9302 -77.0000
-114.0315 108.9302 -78.0000
-111.9952 106.9850 -79.0000
-111.9952 106.9850 -80.0000
-109.9589 105.0398 -81.0000
-109.9589 105.0398 -82.0000
-107.9227 103.0946 -83.0000
-105.8864 101.1495 -84.0000
-103.8501 99.2043 -85.0000
-103.8501 99.2043 -86.0000
-101.8138 97.2591 -87.0000
-99.7776 95.3139 -88.0000
-97.7413 93.3687 -89.0000
-95.7050 91.4236 -90.0000
-93.6687 89.4784 -91.0000
-89.5962 85.5880 -92.0000
-87.5599 83.6428 -93.0000
-85.5236 81.6976 -94.0000
-81.4511 77.8073 -95.0000
-79.4148 75.8621 -96.0000
-77.3785 73.9169 -97.0000
-77.3785 73.9169 -98.0000
-75.3422 71.9717 -99.0000
-75.3422 71.9717 -100.0000
-75.3422 71.9717 -101.0000
-73.3060 70.0265 -102.0000
-73.3060 70.0265 -103.0000
-73.3060 70.0265 -104.0000
-73.3060 70.0265 -105.0000
-73.3060 70.0265 -106.0000
-114.0070 96.3235 -28.0000
-64.5323 54.5227 -29.0000
-62.3812 52.7053 -30.0000
146.2731 -123.5848 -36.0000
148.4242 -125.4023 -37.0000
148.4242 -125.4023 -38.0000
148.4242 -125.4023 -39.0000
-150.5753 127.2197 -43.0000
-165.6328 139.9417 -44.0000
-159.1796 134.4894 -45.0000
-114.0070 96.3235 -46.0000
-103.2516 87.2364 -47.0000
-88.1941 74.5144 -48.0000
-150.5753 127.2197 -49.0000
-150.5753 127.2197 -50.0000
-150.5753 127.2197 -51.0000
-150.5753 127.2197 -52.0000
-150.5753 127.2197 -53.0000
-150.5753 127.2197 -54.0000
-148.4242 125.4023 -55.0000
-148.4242 125.4023 -56.0000
-146.2731 123.5848 -57.0000
-144.1220 121.7674 -58.0000
-141.9709 119.9500 -59.0000
-141.9709 119.9500 -60.0000
-137.6688 116.3151 -61.0000
-135.5177 114.4977 -62.0000
-133.3667 112.6803 -63.0000
-133.3667 112.6803 -64.0000
-131.2156 110.8629 -65.0000
-131.2156 110.8629 -66.0000
-131.2156 110.8629 -67.0000
-129.0645 109.0454 -68.0000
-129.0645 109.0454 -69.0000
-129.0645 109.0454 -70.0000
-126.9134 107.2280 -71.0000
-126.9134 107.2280 -72.0000
-124.7624 105.4106 -73.0000
-124.7624 105.4106 -74.0000
-124.7624 105.4106 -75.0000
-122.6113 103.5932 -76.0000
-120.4602 101.7757 -77.0000
-120.4602 101.7757 -78.0000
-120.4602 101.7757 -79.0000
-118.3091 99.9583 -80.0000
-116.1581 98.1409 -81.0000
-116.1581 98.1409 -82.0000
-114.0070 96.3235 -83.0000
-111.8559 94.5061 -84.0000
-111.8559 94.5061 -85.0000
-109.7048 92.6886 -86.0000
-107.5537 90.8712 -87.0000
-105.4027 89.0538 -88.0000
-103.2516 87.2364 -89.0000
-101.1005 85.4189 -90.0000
-98.9495 83.6015 -91.0000
-94.6473 79.9667 -92.0000
-92.4962 78.1492 -93.0000
-90.3452 76.3318 -94.0000
-86.0430 72.6970 -95.0000
-86.0430 72.6970 -96.0000
-81.7409 69.0621 -97.0000
-81.7409 69.0621 -98.0000
-81.7409 69.0621 -99.0000
-79.5898 67.2447 -100.0000
-79.5898 67.2447 -101.0000
-79.5898 67.2447 -102.0000
-77.4387 65.4273 -103.0000
-77.4387 65.4273 -104.0000
-79.5898 67.2447 -105.0000
-77.4387 65.4273 -106.0000
-126.4408 94.2427 -28.0000
-67.7362 50.4872 -29.0000
-69.9940 52.1701 -30.0000
151.2774 -112.7547 -35.0000
153.5352 -114.4376 -36.0000
153.5352 -114.4376 -37.0000
155.7931 -116.1205 -38.0000
153.5352 -114.4376 -39.0000
-158.0510 117.8034 -43.0000
-171.5982 127.9008 -44.0000
-176.1140 131.2666 -45.0000
-110.6357 82.4624 -46.0000
-81.2834 60.5846 -47.0000
-81.2834 60.5846 -48.0000
-158.0510 117.8034 -49.0000
-158.0510 117.8034 -50.0000
-158.0510 117.8034 -51.0000
-158.0510 117.8034 -52.0000
-158.0510 117.8034 -53.0000
-158.0510 117.8034 -54.0000
-158.0510 117.8034 -55.0000
-155.7931 116.1205 -56.0000
-153.5352 114.4376 -57.0000
-151.2774 112.7547 -58.0000
-149.0195 111.0718 -59.0000
-149.0195 111.0718 -60.0000
-144.5038 107.7060 -61.0000
-142.2459 106.0230 -62.0000
-142.2459 106.0230 -63.0000
-139.9880 104.3401 -64.0000
-139.9880 104.3401 -65.0000
-137.7301 102.6572 -66.0000
-137.7301 102.6572 -67.0000
-137.7301 102.6572 -68.0000
-135.4723 100.9743 -69.0000
-135.4723 100.9743 -70.0000
-133.2144 99.2914 -71.0000
-133.2144 99.2914 -72.0000
-133.2144 99.2914 -73.0000
-130.9565 97.6085 -74.0000
-130.9565 97.6085 -75.0000
-128.6987 95.9256 -76.0000
-128.6987 95.9256 -77.0000
-126.4408 94.2427 -78.0000
-126.4408 94.2427 -79.0000
-124.1829 92.5598 -80.0000
-121.9251 90.8769 -81.0000
-121.9251 90.8769 -82.0000
-119.6672 89.1940 -83.0000
-119.6672 89.1940 -84.0000
-117.4093 87.5111 -85.0000
-115.1514 85.8282 -86.0000
-112.8936 84.1453 -87.0000
-110.6357 82.4624 -88.0000
-108.3778 80.7795 -89.0000
-106.1200 79.0966 -90.0000
-103.8621 77.4137 -91.0000
-101.6042 75.7308 -92.0000
-99.3463 74.0478 -93.0000
-94.8306 70.6820 -94.0000
-92.5727 68.9991 -95.0000
-90.3149 67.3162 -96.0000
-88.0570 65.6333 -97.0000
-85.7991 63.9504 -98.0000
-85.7991 63.9504 -99.0000
-85.7991 63.9504 -100.0000
-83.5412 62.2675 -101.0000
-83.5412 62.2675 -102.0000
-83.5412 62.2675 -103.0000
-83.5412 62.2675 -104.0000
-83.5412 62.2675 -105.0000
-81.2834 60.5846 -106.0000
-141.3761 92.5276 -28.0000
-73.0443 47.8059 -30.0000
157.8700 -103.3225 -35.0000
157.8700 -103.3225 -36.0000
160.2262 -104.8646 -37.0000
160.2262 -104.8646 -38.0000
-164.9388 107.9489 -43.0000
-164.9388 107.9489 -44.0000
-181.4326 118.7437 -45.0000
-94.2507 61.6851 -46.0000
-96.6070 63.2272 -47.0000
-96.6070 63.2272 -48.0000
-164.9388 107.9489 -49.0000
-164.9388 107.9489 -50.0000
-164.9388 107.9489 -51.0000
-164.9388 107.9489 -52.0000
-164.9388 107.9489 -53.0000
-164.9388 107.9489 -54.0000
-164.9388 107.9489 -55.0000
-162.5825 106.4067 -56.0000
-160.2262 104.8646 -57.0000
-160.2262 104.8646 -58.0000
-157.8700 103.3225 -59.0000
-155.5137 101.7804 -60.0000
-153.1574 100.2382 -61.0000
-148.4449 97.1540 -62.0000
-148.4449 97.1540 -63.0000
-146.0886 95.6119 -64.0000
-146.0886 95.6119 -65.0000
-143.7323 94.0697 -66.0000
-143.7323 94.0697 -67.0000
-143.7323 94.0697 -68.0000
-141.3761 92.5276 -69.0000
-141.3761 92.5276 -70.0000
-139.0198 90.9855 -71.0000
-139.0198 90.9855 -72.0000
-139.0198 90.9855 -73.0000
-136.6635 89.4433 -74.0000
-136.6635 89.4433 -75.0000
-134.3073 87.9012 -76.0000
-134.3073 87.9012 -77.0000
-131.9510 86.3591 -78.0000
-131.9510 86.3591 -79.0000
-129.5947 84.8170 -80.0000
-129.5947 84.8170 -81.0000
-127.2385 83.2748 -82.0000
-127.2385 83.2748 -83.0000
-124.8822 81.7327 -84.0000
-122.5259 80.1906 -85.0000
-120.1697 78.6485 -86.0000
-117.8134 77.1063 -87.0000
-117.8134 77.1063 -88.0000
-115.4571 75.5642 -89.0000
-113.1009 74.0221 -90.0000
-108.3883 70.9378 -91.0000
-106.0321 69.3957 -92.0000
-103.6758 67.8536 -93.0000
-101.3195 66.3115 -94.0000
-96.6070 63.2272 -95.0000
-94.2507 61.6851 -96.0000
-91.8945 60.1429 -97.0000
-89.5382 58.6008 -98.0000
-89.5382 58.6008 -99.0000
-89.5382 58.6008 -100.0000
-87.1819 57.0587 -101.0000
-87.1819 57.0587 -102.0000
-87.1819 57.0587 -103.0000
-87.1819 57.0587 -104.0000
-87.1819 57.0587 -105.0000
-84.8257 55.5166 -106.0000
-139.4163 79.5498 -28.0000
-97.8360 55.8244 -29.0000
-75.8229 43.2639 -30.0000
163.8753 -93.5059 -35.0000
163.8753 -93.5059 -36.0000
163.8753 -93.5059 -37.0000
163.8753 -93.5059 -38.0000
-173.6589 99.0884 -43.0000
-173.6589 99.0884 -44.0000
-188.3343 107.4620 -45.0000
-127.1868 72.5718 -46.0000
-100.2819 57.2200 -47.0000
-78.2688 44.6596 -48.0000
-171.2130 97.6928 -49.0000
-173.6589 99.0884 -50.0000
-173.6589 99.0884 -51.0000
-173.6589 99.0884 -52.0000
-173.6589 99.0884 -53.0000
-171.2130 97.6928 -54.0000
-171.2130 97.6928 -55.0000
-168.7671 96.2971 -56.0000
-166.3212 94.9015 -57.0000
-166.3212 94.9015 -58.0000
-161.4294 92.1103 -59.0000
-161.4294 92.1103 -60.0000
-158.9835 90.7147 -61.0000
-154.0917 87.9235 -62.0000
-154.0917 87.9235 -63.0000
-151.6458 86.5279 -64.0000
-151.6458 86.5279 -65.0000
-151.6458 86.5279 -66.0000
-149.1999 85.1323 -67.0000
-149.1999 85.1323 -68.0000
-149.1999 85.1323 -69.0000
-146.7540 83.7367 -70.0000
-146.7540 83.7367 -71.0000
-144.3081 82.3410 -72.0000
-144.3081 82.3410 -73.0000
-141.8622 80.9454 -74.0000
-141.8622 80.9454 -75.0000
-141.8622 80.9454 -76.0000
-139.4163 79.5498 -77.0000
-136.9704 78.1542 -78.0000
-136.9704 78.1542 -79.0000
-136.9704 78.1542 -80.0000
-134.5245 76.7586 -81.0000
-132.0786 75.3630 -82.0000
-132.0786 75.3630 -83.0000
-129.6327 73.9674 -84.0000
-127.1868 72.5718 -85.0000
-127.1868 72.5718 -86.0000
-124.7409 71.1762 -87.0000
-122.2950 69.7805 -88.0000
-119.8491 68.3849 -89.0000
-117.4032 66.9893 -90.0000
-114.9573 65.5937 -91.0000
-112.5114 64.1981 -92.0000
-107.6196 61.4069 -93.0000
-105.1737 60.0113 -94.0000
-102.7278 58.6157 -95.0000
-97.8360 55.8244 -96.0000
-95.3901 54.4288 -97.0000
-95.3901 54.4288 -98.0000
-92.9442 53.0332 -99.0000
-92.9442 53.0332 -100.0000
-92.9442 53.0332 -101.0000
