-25.5618 86.4122 -91.0000
-24.7630 83.7118 -92.0000
-23.9642 81.0115 -93.0000
-23.1654 78.3111 -94.0000
-23.1654 78.3111 -95.0000
23.8543 -69.2225 -43.0000
23.8543 -69.2225 -44.0000
23.8543 -69.2225 -45.0000
22.9368 -66.5601 -46.0000
26.6067 -77.2098 -47.0000
23.8543 -69.2225 -48.0000
23.8543 -69.2225 -49.0000
22.0193 -63.8977 -50.0000
22.0193 -63.8977 -51.0000
22.0193 -63.8977 -52.0000
21.1018 -61.2353 -53.0000
21.1018 -61.2353 -54.0000
21.1018 -61.2353 -55.0000
-49.5435 143.7699 -58.0000
-35.7814 103.8338 -66.0000
-34.8639 101.1714 -67.0000
-34.8639 101.1714 -68.0000
-34.8639 101.1714 -69.0000
-34.8639 101.1714 -70.0000
-34.8639 101.1714 -71.0000
-34.8639 101.1714 -72.0000
-34.8639 101.1714 -73.0000
-34.8639 101.1714 -74.0000
-34.8639 101.1714 -75.0000
-34.8639 101.1714 -76.0000
-33.9464 98.5090 -77.0000
-33.9464 98.5090 -78.0000
-33.9464 98.5090 -79.0000
-33.0290 95.8466 -80.0000
-33.0290 95.8466 -81.0000
-32.1115 93.1842 -82.0000
-32.1115 93.1842 -83.0000
-31.1940 90.5218 -84.0000
-30.2766 87.8594 -85.0000
-30.2766 87.8594 -86.0000
-29.3591 85.1970 -87.0000
-29.3591 85.1970 -88.0000
-28.4416 82.5346 -89.0000
-27.5242 79.8722 -90.0000
-26.6067 77.2098 -91.0000
-26.6067 77.2098 -92.0000
-24.7717 71.8849 -93.0000
-24.7717 71.8849 -94.0000
-24.7717 71.8849 -95.0000
24.8242 -62.8612 -45.0000
24.8242 -62.8612 -46.0000
24.8242 -62.8612 -47.0000
24.8242 -62.8612 -48.0000
26.8929 -68.0996 -49.0000
27.9272 -70.7188 -50.0000
23.7898 -60.2420 -51.0000
23.7898 -60.2420 -52.0000
23.7898 -60.2420 -53.0000
22.7555 -57.6228 -54.0000
22.7555 -57.6228 -55.0000
22.7555 -57.6228 -56.0000
-71.3695 180.7259 -58.0000
-38.2706 96.9110 -66.0000
-36.2019 91.6726 -67.0000
-37.2363 94.2918 -68.0000
-37.2363 94.2918 -69.0000
-37.2363 94.2918 -70.0000
-37.2363 94.2918 -71.0000
-37.2363 94.2918 -72.0000
-37.2363 94.2918 -73.0000
-37.2363 94.2918 -74.0000
-37.2363 94.2918 -75.0000
-36.2019 91.6726 -76.0000
-36.2019 91.6726 -77.0000
-35.1676 89.0533 -78.0000
-35.1676 89.0533 -79.0000
-35.1676 89.0533 -80.0000
-34.1333 86.4341 -81.0000
-34.1333 86.4341 -82.0000
-33.0989 83.8149 -83.0000
-33.0989 83.8149 -84.0000
-32.0646 81.1957 -85.0000
-31.0302 78.5765 -86.0000
-31.0302 78.5765 -87.0000
-29.9959 75.9573 -88.0000
-28.9615 73.3381 -89.0000
-27.9272 70.7188 -90.0000
-27.9272 70.7188 -91.0000
-26.8929 68.0996 -92.0000
-25.8585 65.4804 -93.0000
-24.8242 62.8612 -94.0000
-24.8242 62.8612 -95.0000
27.5804 -61.7016 -47.0000
26.4313 -59.1307 -48.0000
26.4313 -59.1307 -49.0000
28.7296 -64.2725 -50.0000
31.0280 -69.4143 -51.0000
26.4313 -59.1307 -52.0000
25.2821 -56.5598 -53.0000
25.2821 -56.5598 -54.0000
25.2821 -56.5598 -55.0000
-29.8788 66.8434 -57.0000
-68.9511 154.2540 -58.0000
-39.0723 87.4106 -65.0000
-39.0723 87.4106 -66.0000
-41.3707 92.5524 -67.0000
-39.0723 87.4106 -68.0000
-39.0723 87.4106 -69.0000
-39.0723 87.4106 -70.0000
-39.0723 87.4106 -71.0000
-39.0723 87.4106 -72.0000
-39.0723 87.4106 -73.0000
-39.0723 87.4106 -74.0000
-39.0723 87.4106 -75.0000
-37.9231 84.8397 -76.0000
-37.9231 84.8397 -77.0000
-36.7739 82.2688 -78.0000
-36.7739 82.2688 -79.0000
-36.7739 82.2688 -80.0000
-35.6247 79.6979 -81.0000
-34.4756 77.1270 -82.0000
-34.4756 77.1270 -83.0000
-34.4756 77.1270 -84.0000
-33.3264 74.5561 -85.0000
-32.1772 71.9852 -86.0000
-32.1772 71.9852 -87.0000
-31.0280 69.4143 -88.0000
-29.8788 66.8434 -89.0000
-28.7296 64.2725 -90.0000
-28.7296 64.2725 -91.0000
-27.5804 61.7016 -92.0000
-26.4313 59.1307 -93.0000
-26.4313 59.1307 -94.0000
27.7592 -55.3861 -48.0000
27.7592 -55.3861 -49.0000
27.7592 -55.3861 -50.0000
27.7592 -55.3861 -51.0000
27.7592 -55.3861 -52.0000
32.8063 -65.4563 -53.0000
26.4974 -52.8686 -54.0000
26.4974 -52.8686 -55.0000
26.4974 -52.8686 -56.0000
-27.7592 55.3861 -57.0000
-90.8481 181.2637 -58.0000
-40.3770 80.5617 -65.0000
-36.5916 73.0090 -66.0000
-42.9005 85.5968 -67.0000
-40.3770 80.5617 -68.0000
-40.3770 80.5617 -69.0000
-40.3770 80.5617 -70.0000
-40.3770 80.5617 -71.0000
-40.3770 80.5617 -72.0000
-40.3770 80.5617 -73.0000
-40.3770 80.5617 -74.0000
-40.3770 80.5617 -75.0000
-39.1152 78.0441 -76.0000
-39.1152 78.0441 -77.0000
-37.8534 75.5266 -78.0000
-37.8534 75.5266 -79.0000
-37.8534 75.5266 -80.0000
-36.5916 73.0090 -81.0000
-35.3298 70.4915 -82.0000
-35.3298 70.4915 -83.0000
-35.3298 70.4915 -84.0000
-34.0681 67.9739 -85.0000
-32.8063 65.4563 -86.0000
-32.8063 65.4563 -87.0000
-31.5445 62.9388 -88.0000
-30.2827 60.4212 -89.0000
-29.0209 57.9037 -90.0000
-27.7592 55.3861 -91.0000
-27.7592 55.3861 -92.0000
-26.4974 52.8686 -93.0000
-26.4974 52.8686 -94.0000
30.1819 -54.1040 -50.0000
30.1819 -54.1040 -51.0000
30.1819 -54.1040 -52.0000
28.8100 -51.6448 -53.0000
35.6695 -63.9411 -54.0000
28.8100 -51.6448 -55.0000
28.8100 -51.6448 -56.0000
-26.0662 46.7262 -57.0000
-104.2647 186.9049 -58.0000
-41.1571 73.7782 -65.0000
-41.1571 73.7782 -66.0000
-42.5290 76.2375 -67.0000
-41.1571 73.7782 -68.0000
-41.1571 73.7782 -69.0000
-41.1571 73.7782 -70.0000
-41.1571 73.7782 -71.0000
-41.1571 73.7782 -72.0000
-41.1571 73.7782 -73.0000
-41.1571 73.7782 -74.0000
-39.7852 71.3190 -75.0000
-39.7852 71.3190 -76.0000
-39.7852 71.3190 -77.0000
-38.4133 68.8597 -78.0000
-38.4133 68.8597 -79.0000
-37.0414 66.4004 -80.0000
-37.0414 66.4004 -81.0000
-35.6695 63.9411 -82.0000
-35.6695 63.9411 -83.0000
-35.6695 63.9411 -84.0000
-34.2976 61.4819 -85.0000
-32.9257 59.0226 -86.0000
-32.9257 59.0226 -87.0000
-31.5538 56.5633 -88.0000
-30.1819 54.1040 -89.0000
-28.8100 51.6448 -90.0000
-27.4381 49.1855 -91.0000
-27.4381 49.1855 -92.0000
-26.0662 46.7262 -93.0000
-24.6943 44.2669 -94.0000
31.0662 -50.3199 -51.0000
31.0662 -50.3199 -52.0000
31.0662 -50.3199 -53.0000
31.0662 -50.3199 -54.0000
38.4629 -62.3008 -55.0000
31.0662 -50.3199 -56.0000
-42.9010 69.4893 -57.0000
-66.5705 107.8283 -58.0000
-41.4216 67.0931 -65.0000
-41.4216 67.0931 -66.0000
-41.4216 67.0931 -67.0000
-41.4216 67.0931 -68.0000
-41.4216 67.0931 -69.0000
-41.4216 67.0931 -70.0000
-41.4216 67.0931 -71.0000
-41.4216 67.0931 -72.0000
-41.4216 67.0931 -73.0000
-41.4216 67.0931 -74.0000
-41.4216 67.0931 -75.0000
-39.9423 64.6970 -76.0000
-39.9423 64.6970 -77.0000
-38.4629 62.3008 -78.0000
-38.4629 62.3008 -79.0000
-38.4629 62.3008 -80.0000
-36.9836 59.9046 -81.0000
-36.9836 59.9046 -82.0000
-35.5043 57.5084 -83.0000
-35.5043 57.5084 -84.0000
-34.0249 55.1122 -85.0000
-34.0249 55.1122 -86.0000
-32.5456 52.7160 -87.0000
-31.0662 50.3199 -88.0000
-29.5869 47.9237 -89.0000
-29.5869 47.9237 -90.0000
-28.1075 45.5275 -91.0000
-26.6282 43.1313 -92.0000
-25.1489 40.7351 -93.0000
-25.1489 40.7351 -94.0000
31.6777 -46.5680 -51.0000
33.2616 -48.8965 -52.0000
33.2616 -48.8965 -53.0000
31.6777 -46.5680 -54.0000
33.2616 -48.8965 -55.0000
39.5972 -58.2101 -56.0000
-45.9327 67.5237 -57.0000
-42.7650 62.8669 -64.0000
-42.7650 62.8669 -65.0000
-45.9327 67.5237 -66.0000
-42.7650 62.8669 -67.0000
-42.7650 62.8669 -68.0000
-41.1811 60.5385 -69.0000
-41.1811 60.5385 -70.0000
-41.1811 60.5385 -71.0000
-41.1811 60.5385 -72.0000
-41.1811 60.5385 -73.0000
-41.1811 60.5385 -74.0000
-41.1811 60.5385 -75.0000
-41.1811 60.5385 -76.0000
-39.5972 58.2101 -77.0000
-39.5972 58.2101 -78.0000
-38.0133 55.8817 -79.0000
-38.0133 55.8817 -80.0000
-38.0133 55.8817 -81.0000
-36.4294 53.5533 -82.0000
-36.4294 53.5533 -83.0000
-34.8455 51.2249 -84.0000
-34.8455 51.2249 -85.0000
-33.2616 48.8965 -86.0000
-31.6777 46.5680 -87.0000
-31.6777 46.5680 -88.0000
-30.0939 44.2396 -89.0000
-28.5100 41.9112 -90.0000
-26.9261 39.5828 -91.0000
-25.3422 37.2544 -92.0000
-25.3422 37.2544 -93.0000
-22.1744 32.5976 -94.0000
33.7066 -45.1213 -52.0000
33.7066 -45.1213 -53.0000
33.7066 -45.1213 -54.0000
33.7066 -45.1213 -55.0000
33.7066 -45.1213 -56.0000
-16.8533 22.5606 -57.0000
47.1892 -63.1698 -58.0000
-42.1332 56.4016 -64.0000
-42.1332 56.4016 -65.0000
-45.5039 60.9137 -66.0000
-42.1332 56.4016 -67.0000
-42.1332 56.4016 -68.0000
-42.1332 56.4016 -69.0000
-42.1332 56.4016 -70.0000
-42.1332 56.4016 -71.0000
-42.1332 56.4016 -72.0000
-40.4479 54.1455 -73.0000
-40.4479 54.1455 -74.0000
-40.4479 54.1455 -75.0000
-40.4479 54.1455 -76.0000
-40.4479 54.1455 -77.0000
-38.7626 51.8894 -78.0000
-38.7626 51.8894 -79.0000
-37.0773 49.6334 -80.0000
-37.0773 49.6334 -81.0000
-37.0773 49.6334 -82.0000
-35.3919 47.3773 -83.0000
-35.3919 47.3773 -84.0000
-33.7066 45.1213 -85.0000
-33.7066 45.1213 -86.0000
-32.0213 42.8652 -87.0000
-30.3359 40.6091 -88.0000
-30.3359 40.6091 -89.0000
-28.6506 38.3531 -90.0000
-26.9653 36.0970 -91.0000
-25.2800 33.8409 -92.0000
-23.5946 31.5849 -93.0000
-23.5946 31.5849 -94.0000
35.6695 -43.5861 -53.0000
35.6695 -43.5861 -54.0000
35.6695 -43.5861 -55.0000
-7.1339 8.7172 -56.0000
-53.5042 65.3792 -57.0000
-42.8034 52.3034 -64.0000
-41.0199 50.1241 -65.0000
-42.8034 52.3034 -66.0000
-42.8034 52.3034 -67.0000
-42.8034 52.3034 -68.0000
-42.8034 52.3034 -69.0000
-42.8034 52.3034 -70.0000
-42.8034 52.3034 -71.0000
-42.8034 52.3034 -72.0000
-41.0199 50.1241 -73.0000
-41.0199 50.1241 -74.0000
-41.0199 50.1241 -75.0000
-39.2364 47.9448 -76.0000
-39.2364 47.9448 -77.0000
-39.2364 47.9448 -78.0000
-39.2364 47.9448 -79.0000
-37.4529 45.7654 -80.0000
-37.4529 45.7654 -81.0000
-35.6695 43.5861 -82.0000
-35.6695 43.5861 -83.0000
-35.6695 43.5861 -84.0000
-33.8860 41.4068 -85.0000
-32.1025 39.2275 -86.0000
-32.1025 39.2275 -87.0000
-30.3190 37.0482 -88.0000
-30.3190 37.0482 -89.0000
-28.5356 34.8689 -90.0000
-26.7521 32.6896 -91.0000
-24.9686 30.5103 -92.0000
-24.9686 30.5103 -93.0000
-23.1852 28.3310 -94.0000
37.5625 -41.9657 -54.0000
37.5625 -41.9657 -55.0000
-7.5125 8.3931 -56.0000
-78.8813 88.1280 -57.0000
-41.3188 46.1623 -64.0000
-41.3188 46.1623 -65.0000
-41.3188 46.1623 -66.0000
-41.3188 46.1623 -67.0000
-41.3188 46.1623 -68.0000
-41.3188 46.1623 -69.0000
-41.3188 46.1623 -70.0000
-41.3188 46.1623 -71.0000
-41.3188 46.1623 -72.0000
-41.3188 46.1623 -73.0000
-41.3188 46.1623 -74.0000
-41.3188 46.1623 -75.0000
-39.4406 44.0640 -76.0000
-39.4406 44.0640 -77.0000
-37.5625 41.9657 -78.0000
-37.5625 41.9657 -79.0000
-37.5625 41.9657 -80.0000
-37.5625 41.9657 -81.0000
-35.6844 39.8674 -82.0000
-35.6844 39.8674 -83.0000
-33.8063 37.7691 -84.0000
-33.8063 37.7691 -85.0000
-31.9281 35.6708 -86.0000
-31.9281 35.6708 -87.0000
-30.0500 33.5726 -88.0000
-30.0500 33.5726 -89.0000
-28.1719 31.4743 -90.0000
-26.2938 29.3760 -91.0000
-24.4156 27.2777 -92.0000
-24.4156 27.2777 -93.0000
-15.7528 16.1052 -56.0000
-96.4860 98.6446 -57.0000
-41.3511 42.2763 -64.0000
-37.4129 38.2499 -65.0000
-41.3511 42.2763 -66.0000
-41.3511 42.2763 -67.0000
-41.3511 42.2763 -68.0000
-41.3511 42.2763 -69.0000
-41.3511 42.2763 -70.0000
-41.3511 42.2763 -71.0000
-41.3511 42.2763 -72.0000
-41.3511 42.2763 -73.0000
-41.3511 42.2763 -74.0000
-39.3820 40.2631 -75.0000
-39.3820 40.2631 -76.0000
-39.3820 40.2631 -77.0000
-39.3820 40.2631 -78.0000
-37.4129 38.2499 -79.0000
-37.4129 38.2499 -80.0000
-35.4438 36.2368 -81.0000
-35.4438 36.2368 -82.0000
-35.4438 36.2368 -83.0000
-33.4747 34.2236 -84.0000
-33.4747 34.2236 -85.0000
-31.5056 32.2105 -86.0000
-31.5056 32.2105 -87.0000
-29.5365 30.1973 -88.0000
-27.5674 28.1842 -89.0000
-27.5674 28.1842 -90.0000
-27.5674 28.1842 -91.0000
-23.6292 24.1579 -92.0000
-23.6292 24.1579 -93.0000
-41.1245 38.4817 -64.0000
-34.9558 32.7094 -65.0000
-41.1245 38.4817 -66.0000
-41.1245 38.4817 -67.0000
-41.1245 38.4817 -68.0000
-41.1245 38.4817 -69.0000
-41.1245 38.4817 -70.0000
-41.1245 38.4817 -71.0000
-41.1245 38.4817 -72.0000
-41.1245 38.4817 -73.0000
-41.1245 38.4817 -74.0000
-41.1245 38.4817 -75.0000
-39.0682 36.5576 -76.0000
-39.0682 36.5576 -77.0000
-37.0120 34.6335 -78.0000
-37.0120 34.6335 -79.0000
-37.0120 34.6335 -80.0000
-37.0120 34.6335 -81.0000
-34.9558 32.7094 -82.0000
-34.9558 32.7094 -83.0000
-32.8996 30.7854 -84.0000
-32.8996 30.7854 -85.0000
-32.8996 30.7854 -86.0000
-30.8433 28.8613 -87.0000
-28.7871 26.9372 -88.0000
-28.7871 26.9372 -89.0000
-26.7309 25.0131 -90.0000
-24.6747 23.0890 -91.0000
-24.6747 23.0890 -92.0000
-22.6185 21.1649 -93.0000
-10.6966 9.1562 -63.0000
-21.3932 18.3125 -64.0000
-40.6471 34.7937 -65.0000
-40.6471 34.7937 -66.0000
-40.6471 34.7937 -67.0000
-40.6471 34.7937 -68.0000
-42.7864 36.6250 -69.0000
-42.7864 36.6250 -70.0000
-40.6471 34.7937 -71.0000
-40.6471 34.7937 -72.0000
-40.6471 34.7937 -73.0000
-40.6471 34.7937 -74.0000
-38.5077 32.9625 -75.0000
-38.5077 32.9625 -76.0000
-38.5077 32.9625 -77.0000
-38.5077 32.9625 -78.0000
-38.5077 32.9625 -79.0000
-36.3684 31.1312 -80.0000
-34.2291 29.3000 -81.0000
-34.2291 29.3000 -82.0000
-34.2291 29.3000 -83.0000
-34.2291 29.3000 -84.0000
-32.0898 27.4687 -85.0000
-32.0898 27.4687 -86.0000
-29.9505 25.6375 -87.0000
-29.9505 25.6375 -88.0000
-27.8112 23.8062 -89.0000
-25.6718 21.9750 -90.0000
-25.6718 21.9750 -91.0000
-23.5325 20.1437 -92.0000
-23.5325 20.1437 -93.0000
-42.1463 32.9617 -63.0000
-42.1463 32.9617 -64.0000
-39.9281 31.2269 -65.0000
-39.9281 31.2269 -66.0000
-39.9281 31.2269 -67.0000
-39.9281 31.2269 -68.0000
-39.9281 31.2269 -69.0000
-39.9281 31.2269 -70.0000
-39.9281 31.2269 -71.0000
-39.9281 31.2269 -72.0000
-39.9281 31.2269 -73.0000
-39.9281 31.2269 -74.0000
-39.9281 31.2269 -75.0000
-39.9281 31.2269 -76.0000
-37.7099 29.4920 -77.0000
-37.7099 29.4920 -78.0000
-35.4916 27.7572 -79.0000
-35.4916 27.7572 -80.0000
-35.4916 27.7572 -81.0000
-35.4916 27.7572 -82.0000
-35.4916 27.7572 -83.0000
-33.2734 26.0224 -84.0000
-31.0552 24.2876 -85.0000
-31.0552 24.2876 -86.0000
-31.0552 24.2876 -87.0000
-28.8370 22.5527 -88.0000
-26.6187 20.8179 -89.0000
-26.6187 20.8179 -90.0000
-24.4005 19.0831 -91.0000
-24.4005 19.0831 -92.0000
-22.1823 17.3483 -93.0000
87.1261 -62.1303 -54.0000
75.6622 -53.9553 -55.0000
-13.7568 9.8101 -56.0000
-41.2703 29.4302 -63.0000
-41.2703 29.4302 -64.0000
-41.2703 29.4302 -65.0000
-41.2703 29.4302 -66.0000
-41.2703 29.4302 -67.0000
-41.2703 29.4302 -68.0000
-41.2703 29.4302 -69.0000
-41.2703 29.4302 -70.0000
-41.2703 29.4302 -71.0000
-41.2703 29.4302 -72.0000
-41.2703 29.4302 -73.0000
-38.9775 27.7952 -74.0000
-38.9775 27.7952 -75.0000
-38.9775 27.7952 -76.0000
-36.6847 26.1601 -77.0000
-36.6847 26.1601 -78.0000
-36.6847 26.1601 -79.0000
-36.6847 26.1601 -80.0000
-36.6847 26.1601 -81.0000
-34.3919 24.5251 -82.0000
-34.3919 24.5251 -83.0000
-32.0991 22.8901 -84.0000
-32.0991 22.8901 -85.0000
-32.0991 22.8901 -86.0000
-29.8063 21.2551 -87.0000
-27.5135 19.6201 -88.0000
-27.5135 19.6201 -89.0000
-27.5135 19.6201 -90.0000
-22.9279 16.3501 -91.0000
-22.9279 16.3501 -92.0000
-22.9279 16.3501 -93.0000
-22.9279 16.3501 -94.0000
0.0000 0.0000 -56.0000
-4.7257 3.0640 -57.0000
-40.1688 26.0438 -63.0000
-40.1688 26.0438 -64.0000
-40.1688 26.0438 -65.0000
-40.1688 26.0438 -66.0000
-40.1688 26.0438 -67.0000
-40.1688 26.0438 -68.0000
-40.1688 26.0438 -69.0000
-40.1688 26.0438 -70.0000
-40.1688 26.0438 -71.0000
-40.1688 26.0438 -72.0000
-40.1688 26.0438 -73.0000
-37.8059 24.5118 -74.0000
-37.8059 24.5118 -75.0000
-37.8059 24.5118 -76.0000
-37.8059 24.5118 -77.0000
-37.8059 24.5118 -78.0000
-37.8059 24.5118 -79.0000
-35.4431 22.9799 -80.0000
-35.4431 22.9799 -81.0000
-33.0802 21.4479 -82.0000
-33.0802 21.4479 -83.0000
-33.0802 21.4479 -84.0000
-30.7173 19.9159 -85.0000
-30.7173 19.9159 -86.0000
-28.3545 18.3839 -87.0000
-28.3545 18.3839 -88.0000
-28.3545 18.3839 -89.0000
-25.9916 16.8519 -90.0000
-23.6287 15.3199 -91.0000
-23.6287 15.3199 -92.0000
-21.2658 13.7879 -93.0000
-23.6287 15.3199 -94.0000
0.0000 0.0000 -57.0000
-41.2815 24.2415 -63.0000
-41.2815 24.2415 -64.0000
-38.8532 22.8156 -65.0000
-41.2815 24.2415 -66.0000
-38.8532 22.8156 -67.0000
-38.8532 22.8156 -68.0000
-38.8532 22.8156 -69.0000
-38.8532 22.8156 -70.0000
-38.8532 22.8156 -71.0000
-38.8532 22.8156 -72.0000
-38.8532 22.8156 -73.0000
-38.8532 22.8156 -74.0000
-38.8532 22.8156 -75.0000
-38.8532 22.8156 -76.0000
-36.4249 21.3896 -77.0000
-36.4249 21.3896 -78.0000
-36.4249 21.3896 -79.0000
-33.9965 19.9636 -80.0000
-33.9965 19.9636 -81.0000
-33.9965 19.9636 -82.0000
-33.9965 19.9636 -83.0000
-31.5682 18.5377 -84.0000
-31.5682 18.5377 -85.0000
-29.1399 17.1117 -86.0000
-29.1399 17.1117 -87.0000
-29.1399 17.1117 -88.0000
-26.7116 15.6857 -89.0000
-24.2832 14.2597 -90.0000
-24.2832 14.2597 -91.0000
-21.8549 12.8338 -92.0000
-21.8549 12.8338 -93.0000
-24.8902 13.1717 -57.0000
-92.0938 48.7351 -62.0000
-72.1816 38.1978 -63.0000
-39.8244 21.0746 -64.0000
-39.8244 21.0746 -65.0000
-39.8244 21.0746 -66.0000
-39.8244 21.0746 -67.0000
-39.8244 21.0746 -68.0000
-39.8244 21.0746 -69.0000
-39.8244 21.0746 -70.0000
-39.8244 21.0746 -71.0000
-39.8244 21.0746 -72.0000
-39.8244 21.0746 -73.0000
-39.8244 21.0746 -74.0000
-37.3353 19.7575 -75.0000
-37.3353 19.7575 -76.0000
-37.3353 19.7575 -77.0000
-34.8463 18.4403 -78.0000
-34.8463 18.4403 -79.0000
-34.8463 18.4403 -80.0000
-34.8463 18.4403 -81.0000
-34.8463 18.4403 -82.0000
-32.3573 17.1231 -83.0000
-32.3573 17.1231 -84.0000
-29.8683 15.8060 -85.0000
-29.8683 15.8060 -86.0000
-29.8683 15.8060 -87.0000
-27.3792 14.4888 -88.0000
-24.8902 13.1717 -89.0000
-24.8902 13.1717 -90.0000
-24.8902 13.1717 -91.0000
-22.4012 11.8545 -92.0000
-22.4012 11.8545 -93.0000
-22.4012 11.8545 -94.0000
-40.7176 19.2924 -56.0000
-30.5382 14.4693 -57.0000
-104.3388 49.4369 -62.0000
-55.9867 26.5271 -63.0000
-40.7176 19.2924 -64.0000
-40.7176 19.2924 -65.0000
-40.7176 19.2924 -66.0000
-40.7176 19.2924 -67.0000
-40.7176 19.2924 -68.0000
-40.7176 19.2924 -69.0000
-40.7176 19.2924 -70.0000
-40.7176 19.2924 -71.0000
-40.7176 19.2924 -72.0000
-38.1727 18.0867 -73.0000
-38.1727 18.0867 -74.0000
-38.1727 18.0867 -75.0000
-38.1727 18.0867 -76.0000
-35.6279 16.8809 -77.0000
-35.6279 16.8809 -78.0000
-35.6279 16.8809 -79.0000
-35.6279 16.8809 -80.0000
-35.6279 16.8809 -81.0000
-33.0830 15.6751 -82.0000
-33.0830 15.6751 -83.0000
-30.5382 14.4693 -84.0000
-30.5382 14.4693 -85.0000
-30.5382 14.4693 -86.0000
-30.5382 14.4693 -87.0000
-27.9933 13.2636 -88.0000
-25.4485 12.0578 -89.0000
-25.4485 12.0578 -90.0000
-22.9036 10.8520 -91.0000
-22.9036 10.8520 -92.0000
-22.9036 10.8520 -93.0000
-22.9036 10.8520 -94.0000
0.0000 0.0000 -56.0000
-41.5311 17.4725 -57.0000
-75.2751 31.6689 -62.0000
-38.9354 16.3805 -63.0000
-38.9354 16.3805 -64.0000
-38.9354 16.3805 -65.0000
-38.9354 16.3805 -66.0000
-38.9354 16.3805 -67.0000
-38.9354 16.3805 -68.0000
-38.9354 16.3805 -69.0000
-38.9354 16.3805 -70.0000
-38.9354 16.3805 -71.0000
-38.9354 16.3805 -72.0000
-38.9354 16.3805 -73.0000
-38.9354 16.3805 -74.0000
-36.3397 15.2884 -75.0000
-36.3397 15.2884 -76.0000
-36.3397 15.2884 -77.0000
-36.3397 15.2884 -78.0000
-36.3397 15.2884 -79.0000
-36.3397 15.2884 -80.0000
-33.7440 14.1964 -81.0000
-33.7440 14.1964 -82.0000
-31.1483 13.1044 -83.0000
-31.1483 13.1044 -84.0000
-31.1483 13.1044 -85.0000
-31.1483 13.1044 -86.0000
-28.5526 12.0123 -87.0000
-25.9569 10.9203 -88.0000
-25.9569 10.9203 -89.0000
-25.9569 10.9203 -90.0000
-23.3612 9.8283 -91.0000
-23.3612 9.8283 -92.0000
-23.3612 9.8283 -93.0000
-2.6415 0.9761 -56.0000
-39.6219 14.6422 -63.0000
-39.6219 14.6422 -64.0000
-39.6219 14.6422 -65.0000
-39.6219 14.6422 -66.0000
-39.6219 14.6422 -67.0000
-39.6219 14.6422 -68.0000
-39.6219 14.6422 -69.0000
-39.6219 14.6422 -70.0000
-39.6219 14.6422 -71.0000
-39.6219 14.6422 -72.0000
-36.9804 13.6660 -73.0000
-36.9804 13.6660 -74.0000
-36.9804 13.6660 -75.0000
-36.9804 13.6660 -76.0000
-36.9804 13.6660 -77.0000
-36.9804 13.6660 -78.0000
-36.9804 13.6660 -79.0000
-34.3389 12.6899 -80.0000
-34.3389 12.6899 -81.0000
-31.6975 11.7137 -82.0000
-31.6975 11.7137 -83.0000
-31.6975 11.7137 -84.0000
-31.6975 11.7137 -85.0000
-29.0560 10.7376 -86.0000
-26.4146 9.7615 -87.0000
-26.4146 9.7615 -88.0000
-26.4146 9.7615 -89.0000
-23.7731 8.7853 -90.0000
-23.7731 8.7853 -91.0000
-23.7731 8.7853 -92.0000
-21.1317 7.8092 -93.0000
-101.9179 32.6173 -55.0000
-8.0461 2.5750 -56.0000
-40.2308 12.8752 -63.0000
-40.2308 12.8752 -64.0000
-40.2308 12.8752 -65.0000
-40.2308 12.8752 -66.0000
-40.2308 12.8752 -67.0000
-40.2308 12.8752 -68.0000
-40.2308 12.8752 -69.0000
-37.5487 12.0169 -70.0000
-37.5487 12.0169 -71.0000
-37.5487 12.0169 -72.0000
-37.5487 12.0169 -73.0000
-37.5487 12.0169 -74.0000
-37.5487 12.0169 -75.0000
-37.5487 12.0169 -76.0000
-37.5487 12.0169 -77.0000
-34.8667 11.1585 -78.0000
-34.8667 11.1585 -79.0000
-34.8667 11.1585 -80.0000
-32.1846 10.3002 -81.0000
-32.1846 10.3002 -82.0000
-32.1846 10.3002 -83.0000
-32.1846 10.3002 -84.0000
-29.5026 9.4418 -85.0000
-29.5026 9.4418 -86.0000
-26.8205 8.5835 -87.0000
-26.8205 8.5835 -88.0000
-26.8205 8.5835 -89.0000
-24.1385 7.7251 -90.0000
-24.1385 7.7251 -91.0000
-24.1385 7.7251 -92.0000
-21.4564 6.8668 -93.0000
-59.7826 16.2552 -55.0000
-40.7609 11.0831 -63.0000
-38.0435 10.3442 -64.0000
-40.7609 11.0831 -65.0000
-40.7609 11.0831 -66.0000
-40.7609 11.0831 -67.0000
-38.0435 10.3442 -68.0000
-38.0435 10.3442 -69.0000
-38.0435 10.3442 -70.0000
-38.0435 10.3442 -71.0000
-38.0435 10.3442 -72.0000
-38.0435 10.3442 -73.0000
-38.0435 10.3442 -74.0000
-38.0435 10.3442 -75.0000
-38.0435 10.3442 -76.0000
-35.3261 9.6053 -77.0000
-35.3261 9.6053 -78.0000
-35.3261 9.6053 -79.0000
-32.6087 8.8665 -80.0000
-32.6087 8.8665 -81.0000
-32.6087 8.8665 -82.0000
-32.6087 8.8665 -83.0000
-32.6087 8.8665 -84.0000
-29.8913 8.1276 -85.0000
-27.1739 7.3887 -86.0000
-27.1739 7.3887 -87.0000
-27.1739 7.3887 -88.0000
-24.4565 6.6499 -89.0000
-24.4565 6.6499 -90.0000
-24.4565 6.6499 -91.0000
-24.4565 6.6499 -92.0000
-21.7391 5.9110 -93.0000
-19.2319 4.3257 -55.0000
-63.1906 14.2129 -62.0000
-41.2112 9.2693 -63.0000
-38.4638 8.6513 -64.0000
-41.2112 9.2693 -65.0000
-41.2112 9.2693 -66.0000
-38.4638 8.6513 -67.0000
-38.4638 8.6513 -68.0000
-38.4638 8.6513 -69.0000
-38.4638 8.6513 -70.0000
-38.4638 8.6513 -71.0000
-38.4638 8.6513 -72.0000
-38.4638 8.6513 -73.0000
-38.4638 8.6513 -74.0000
-38.4638 8.6513 -75.0000
-35.7164 8.0334 -76.0000
-35.7164 8.0334 -77.0000
-35.7164 8.0334 -78.0000
-32.9690 7.4154 -79.0000
-32.9690 7.4154 -80.0000
-32.9690 7.4154 -81.0000
-32.9690 7.4154 -82.0000
-32.9690 7.4154 -83.0000
-30.2216 6.7975 -84.0000
-30.2216 6.7975 -85.0000
-27.4742 6.1795 -86.0000
-27.4742 6.1795 -87.0000
-27.4742 6.1795 -88.0000
-24.7267 5.5616 -89.0000
-24.7267 5.5616 -90.0000
-24.7267 5.5616 -91.0000
-21.9793 4.9436 -92.0000
-21.9793 4.9436 -93.0000
-19.4044 3.4707 -55.0000
-41.5809 7.4373 -62.0000
-38.8088 6.9415 -63.0000
-38.8088 6.9415 -64.0000
-38.8088 6.9415 -65.0000
-38.8088 6.9415 -66.0000
-38.8088 6.9415 -67.0000
-38.8088 6.9415 -68.0000
-38.8088 6.9415 -69.0000
-38.8088 6.9415 -70.0000
-38.8088 6.9415 -71.0000
-38.8088 6.9415 -72.0000
-38.8088 6.9415 -73.0000
-38.8088 6.9415 -74.0000
-36.0368 6.4456 -75.0000
-36.0368 6.4456 -76.0000
-36.0368 6.4456 -77.0000
-33.2647 5.9498 -78.0000
-33.2647 5.9498 -79.0000
-33.2647 5.9498 -80.0000
-33.2647 5.9498 -81.0000
-33.2647 5.9498 -82.0000
-33.2647 5.9498 -83.0000
-30.4927 5.4540 -84.0000
-30.4927 5.4540 -85.0000
-27.7206 4.9582 -86.0000
-27.7206 4.9582 -87.0000
-27.7206 4.9582 -88.0000
-24.9485 4.4624 -89.0000
-24.9485 4.4624 -90.0000
-24.9485 4.4624 -91.0000
-22.1765 3.9665 -92.0000
-22.1765 3.9665 -93.0000
-114.4424 15.2813 -54.0000
-16.7477 2.2363 -55.0000
-114.4424 15.2813 -62.0000
-39.0779 5.2180 -63.0000
-39.0779 5.2180 -64.0000
-39.0779 5.2180 -65.0000
-39.0779 5.2180 -66.0000
-39.0779 5.2180 -67.0000
-39.0779 5.2180 -68.0000
-39.0779 5.2180 -69.0000
-39.0779 5.2180 -70.0000
-39.0779 5.2180 -71.0000
-39.0779 5.2180 -72.0000
-39.0779 5.2180 -73.0000
-39.0779 5.2180 -74.0000
-36.2866 4.8453 -75.0000
-36.2866 4.8453 -76.0000
-36.2866 4.8453 -77.0000
-33.4953 4.4726 -78.0000
-33.4953 4.4726 -79.0000
-33.4953 4.4726 -80.0000
-33.4953 4.4726 -81.0000
-33.4953 4.4726 -82.0000
-30.7041 4.0999 -83.0000
-30.7041 4.0999 -84.0000
-30.7041 4.0999 -85.0000
-27.9128 3.7272 -86.0000
-27.9128 3.7272 -87.0000
-27.9128 3.7272 -88.0000
-25.1215 3.3544 -89.0000
-25.1215 3.3544 -90.0000
-22.3302 2.9817 -91.0000
-22.3302 2.9817 -92.0000
-22.3302 2.9817 -93.0000
-64.5158 5.7243 -54.0000
-98.1762 8.7109 -62.0000
-39.2705 3.4844 -63.0000
-39.2705 3.4844 -64.0000
-39.2705 3.4844 -65.0000
-39.2705 3.4844 -66.0000
-39.2705 3.4844 -67.0000
-39.2705 3.4844 -68.0000
-39.2705 3.4844 -69.0000
-39.2705 3.4844 -70.0000
-39.2705 3.4844 -71.0000
-39.2705 3.4844 -72.0000
-39.2705 3.4844 -73.0000
-36.4654 3.2355 -74.0000
-36.4654 3.2355 -75.0000
-36.4654 3.2355 -76.0000
-36.4654 3.2355 -77.0000
-33.6604 2.9866 -78.0000
-33.6604 2.9866 -79.0000
-33.6604 2.9866 -80.0000
-33.6604 2.9866 -81.0000
-33.6604 2.9866 -82.0000
-30.8554 2.7377 -83.0000
-30.8554 2.7377 -84.0000
-30.8554 2.7377 -85.0000
-28.0503 2.4888 -86.0000
-28.0503 2.4888 -87.0000
-25.2453 2.2399 -88.0000
-25.2453 2.2399 -89.0000
-25.2453 2.2399 -90.0000
-22.4403 1.9911 -91.0000
-22.4403 1.9911 -92.0000
-22.4403 1.9911 -93.0000
-78.7723 3.4878 -54.0000
-16.8798 0.7474 -55.0000
-42.1995 1.8685 -61.0000
-87.2122 3.8615 -62.0000
-39.3862 1.7439 -63.0000
-39.3862 1.7439 -64.0000
-39.3862 1.7439 -65.0000
-39.3862 1.7439 -66.0000
-39.3862 1.7439 -67.0000
-39.3862 1.7439 -68.0000
-39.3862 1.7439 -69.0000
-39.3862 1.7439 -70.0000
-39.3862 1.7439 -71.0000
-39.3862 1.7439 -72.0000
-39.3862 1.7439 -73.0000
-36.5729 1.6193 -74.0000
-36.5729 1.6193 -75.0000
-36.5729 1.6193 -76.0000
-36.5729 1.6193 -77.0000
-33.7596 1.4948 -78.0000
-33.7596 1.4948 -79.0000
-33.7596 1.4948 -80.0000
-33.7596 1.4948 -81.0000
-33.7596 1.4948 -82.0000
-30.9463 1.3702 -83.0000
-30.9463 1.3702 -84.0000
-28.1330 1.2456 -85.0000
-28.1330 1.2456 -86.0000
-28.1330 1.2456 -87.0000
-25.3197 1.1211 -88.0000
-25.3197 1.1211 -89.0000
-25.3197 1.1211 -90.0000
-22.5064 0.9965 -91.0000
-22.5064 0.9965 -92.0000
-22.5064 0.9965 -93.0000
-70.4013 0.0000 -54.0000
-42.2408 0.0000 -61.0000
-81.6655 0.0000 -62.0000
-39.4247 0.0000 -63.0000
-39.4247 0.0000 -64.0000
-39.4247 0.0000 -65.0000
-39.4247 0.0000 -66.0000
-39.4247 0.0000 -67.0000
-39.4247 0.0000 -68.0000
-39.4247 0.0000 -69.0000
-39.4247 0.0000 -70.0000
-39.4247 0.0000 -71.0000
-39.4247 0.0000 -72.0000
-39.4247 0.0000 -73.0000
-36.6087 0.0000 -74.0000
-36.6087 0.0000 -75.0000
-36.6087 0.0000 -76.0000
-36.6087 0.0000 -77.0000
-33.7926 0.0000 -78.0000
-33.7926 0.0000 -79.0000
-33.7926 0.0000 -80.0000
-33.7926 0.0000 -81.0000
-33.7926 0.0000 -82.0000
-30.9766 0.0000 -83.0000
-30.9766 0.0000 -84.0000
-30.9766 0.0000 -85.0000
-28.1605 0.0000 -86.0000
-28.1605 0.0000 -87.0000
-25.3445 0.0000 -88.0000
-25.3445 0.0000 -89.0000
-25.3445 0.0000 -90.0000
-22.5284 0.0000 -91.0000
-22.5284 0.0000 -92.0000
-22.5284 0.0000 -93.0000
-64.7058 -2.8650 -54.0000
-42.1995 -1.8684 -61.0000
-56.2659 -2.4913 -62.0000
-39.3862 -1.7439 -63.0000
-39.3862 -1.7439 -64.0000
-39.3862 -1.7439 -65.0000
-39.3862 -1.7439 -66.0000
-39.3862 -1.7439 -67.0000
-39.3862 -1.7439 -68.0000
-39.3862 -1.7439 -69.0000
-39.3862 -1.7439 -70.0000
-39.3862 -1.7439 -71.0000
-39.3862 -1.7439 -72.0000
-36.5729 -1.6193 -73.0000
-36.5729 -1.6193 -74.0000
-36.5729 -1.6193 -75.0000
-36.5729 -1.6193 -76.0000
-36.5729 -1.6193 -77.0000
-33.7596 -1.4948 -78.0000
-33.7596 -1.4948 -79.0000
-33.7596 -1.4948 -80.0000
-33.7596 -1.4948 -81.0000
-33.7596 -1.4948 -82.0000
-30.9463 -1.3702 -83.0000
-30.9463 -1.3702 -84.0000
-30.9463 -1.3702 -85.0000
-28.1330 -1.2456 -86.0000
-28.1330 -1.2456 -87.0000
-25.3197 -1.1211 -88.0000
-25.3197 -1.1211 -89.0000
-25.3197 -1.1211 -90.0000
-22.5064 -0.9965 -91.0000
-22.5064 -0.9965 -92.0000
-22.5064 -0.9965 -93.0000
-58.9057 -5.2265 -54.0000
-42.0755 -3.7332 -61.0000
-39.2705 -3.4844 -62.0000
-42.0755 -3.7332 -63.0000
-42.0755 -3.7332 -64.0000
-42.0755 -3.7332 -65.0000
-42.0755 -3.7332 -66.0000
-39.2705 -3.4844 -67.0000
-39.2705 -3.4844 -68.0000
-39.2705 -3.4844 -69.0000
-39.2705 -3.4844 -70.0000
-39.2705 -3.4844 -71.0000
-39.2705 -3.4844 -72.0000
-36.4654 -3.2355 -73.0000
-36.4654 -3.2355 -74.0000
-36.4654 -3.2355 -75.0000
-36.4654 -3.2355 -76.0000
-36.4654 -3.2355 -77.0000
-36.4654 -3.2355 -78.0000
-33.6604 -2.9866 -79.0000
-33.6604 -2.9866 -80.0000
-33.6604 -2.9866 -81.0000
-33.6604 -2.9866 -82.0000
-30.8554 -2.7377 -83.0000
-30.8554 -2.7377 -84.0000
-30.8554 -2.7377 -85.0000
-28.0503 -2.4888 -86.0000
-28.0503 -2.4888 -87.0000
-25.2453 -2.2399 -88.0000
-25.2453 -2.2399 -89.0000
-25.2453 -2.2399 -90.0000
-25.2453 -2.2399 -91.0000
-22.4403 -1.9911 -92.0000
-22.4403 -1.9911 -93.0000
-36.2866 -4.8453 -54.0000
-2.7913 -0.3727 -55.0000
-41.8692 -5.5907 -61.0000
-41.8692 -5.5907 -62.0000
-47.4517 -6.3362 -63.0000
-41.8692 -5.5907 -64.0000
-41.8692 -5.5907 -65.0000
-41.8692 -5.5907 -66.0000
-41.8692 -5.5907 -67.0000
-41.8692 -5.5907 -68.0000
-39.0779 -5.2180 -69.0000
-39.0779 -5.2180 -70.0000
-39.0779 -5.2180 -71.0000
-39.0779 -5.2180 -72.0000
-39.0779 -5.2180 -73.0000
-36.2866 -4.8453 -74.0000
-36.2866 -4.8453 -75.0000
-36.2866 -4.8453 -76.0000
-36.2866 -4.8453 -77.0000
-36.2866 -4.8453 -78.0000
-33.4953 -4.4726 -79.0000
-33.4953 -4.4726 -80.0000
-33.4953 -4.4726 -81.0000
-33.4953 -4.4726 -82.0000
-30.7041 -4.0999 -83.0000
-30.7041 -4.0999 -84.0000
-30.7041 -4.0999 -85.0000
-27.9128 -3.7272 -86.0000
-27.9128 -3.7272 -87.0000
-25.1215 -3.3544 -88.0000
-25.1215 -3.3544 -89.0000
-25.1215 -3.3544 -90.0000
-25.1215 -3.3544 -91.0000
-22.3302 -2.9817 -92.0000
-22.3302 -2.9817 -93.0000
-16.6324 -2.9749 -54.0000
2.7721 0.4958 -55.0000
-41.5809 -7.4373 -61.0000
-41.5809 -7.4373 -62.0000
-41.5809 -7.4373 -63.0000
-41.5809 -7.4373 -64.0000
-41.5809 -7.4373 -65.0000
-41.5809 -7.4373 -66.0000
-41.5809 -7.4373 -67.0000
-41.5809 -7.4373 -68.0000
-41.5809 -7.4373 -69.0000
-38.8088 -6.9415 -70.0000
-38.8088 -6.9415 -71.0000
-38.8088 -6.9415 -72.0000
-38.8088 -6.9415 -73.0000
-36.0368 -6.4456 -74.0000
-36.0368 -6.4456 -75.0000
-36.0368 -6.4456 -76.0000
-36.0368 -6.4456 -77.0000
-36.0368 -6.4456 -78.0000
-36.0368 -6.4456 -79.0000
-33.2647 -5.9498 -80.0000
-33.2647 -5.9498 -81.0000
-33.2647 -5.9498 -82.0000
-30.4927 -5.4540 -83.0000
-30.4927 -5.4540 -84.0000
-30.4927 -5.4540 -85.0000
-27.7206 -4.9582 -86.0000
-27.7206 -4.9582 -87.0000
-24.9485 -4.4624 -88.0000
-24.9485 -4.4624 -89.0000
-24.9485 -4.4624 -90.0000
-24.9485 -4.4624 -91.0000
-22.1765 -3.9665 -92.0000
-22.1765 -3.9665 -93.0000
8.2422 1.8539 -55.0000
-41.2112 -9.2693 -61.0000
-41.2112 -9.2693 -62.0000
-41.2112 -9.2693 -63.0000
-41.2112 -9.2693 -64.0000
-41.2112 -9.2693 -65.0000
-41.2112 -9.2693 -66.0000
-41.2112 -9.2693 -67.0000
-41.2112 -9.2693 -68.0000
-41.2112 -9.2693 -69.0000
-41.2112 -9.2693 -70.0000
-38.4638 -8.6513 -71.0000
-38.4638 -8.6513 -72.0000
-38.4638 -8.6513 -73.0000
-38.4638 -8.6513 -74.0000
-35.7164 -8.0334 -75.0000
-35.7164 -8.0334 -76.0000
-35.7164 -8.0334 -77.0000
-35.7164 -8.0334 -78.0000
-35.7164 -8.0334 -79.0000
-35.7164 -8.0334 -80.0000
-32.9690 -7.4154 -81.0000
-32.9690 -7.4154 -82.0000
-30.2216 -6.7975 -83.0000
-30.2216 -6.7975 -84.0000
-30.2216 -6.7975 -85.0000
-30.2216 -6.7975 -86.0000
-27.4742 -6.1795 -87.0000
-27.4742 -6.1795 -88.0000
-24.7267 -5.5616 -89.0000
-24.7267 -5.5616 -90.0000
-24.7267 -5.5616 -91.0000
-21.9793 -4.9436 -92.0000
-21.9793 -4.9436 -93.0000
-40.7609 -11.0831 -62.0000
-40.7609 -11.0831 -63.0000
-40.7609 -11.0831 -64.0000
-40.7609 -11.0831 -65.0000
-40.7609 -11.0831 -66.0000
-40.7609 -11.0831 -67.0000
-40.7609 -11.0831 -68.0000
-40.7609 -11.0831 -69.0000
-40.7609 -11.0831 -70.0000
-40.7609 -11.0831 -71.0000
-38.0435 -10.3442 -72.0000
-38.0435 -10.3442 -73.0000
-38.0435 -10.3442 -74.0000
-38.0435 -10.3442 -75.0000
-35.3261 -9.6054 -76.0000
-35.3261 -9.6054 -77.0000
-35.3261 -9.6054 -78.0000
-35.3261 -9.6054 -79.0000
-35.3261 -9.6054 -80.0000
-32.6087 -8.8665 -81.0000
-32.6087 -8.8665 -82.0000
-32.6087 -8.8665 -83.0000
-29.8913 -8.1276 -84.0000
-29.8913 -8.1276 -85.0000
-29.8913 -8.1276 -86.0000
-27.1739 -7.3887 -87.0000
-27.1739 -7.3887 -88.0000
-24.4565 -6.6499 -89.0000
-24.4565 -6.6499 -90.0000
-24.4565 -6.6499 -91.0000
-21.7391 -5.9110 -92.0000
-21.7391 -5.9110 -93.0000
-42.9128 -13.7336 -61.0000
-40.2308 -12.8752 -62.0000
-42.9128 -13.7336 -63.0000
-42.9128 -13.7336 -64.0000
-42.9128 -13.7336 -65.0000
-42.9128 -13.7336 -66.0000
-40.2308 -12.8752 -67.0000
-40.2308 -12.8752 -68.0000
-40.2308 -12.8752 -69.0000
-40.2308 -12.8752 -70.0000
-40.2308 -12.8752 -71.0000
-40.2308 -12.8752 -72.0000
-40.2308 -12.8752 -73.0000
-37.5487 -12.0169 -74.0000
-37.5487 -12.0169 -75.0000
-37.5487 -12.0169 -76.0000
-34.8667 -11.1585 -77.0000
-34.8667 -11.1585 -78.0000
-34.8667 -11.1585 -79.0000
-34.8667 -11.1585 -80.0000
-34.8667 -11.1585 -81.0000
-32.1846 -10.3002 -82.0000
-32.1846 -10.3002 -83.0000
-29.5026 -9.4418 -84.0000
-29.5026 -9.4418 -85.0000
-29.5026 -9.4418 -86.0000
-29.5026 -9.4418 -87.0000
-26.8205 -8.5835 -88.0000
-24.1385 -7.7251 -89.0000
-24.1385 -7.7251 -90.0000
-24.1385 -7.7251 -91.0000
-21.4564 -6.8668 -92.0000
-21.4564 -6.8668 -93.0000
-42.2633 -15.6183 -61.0000
-42.2633 -15.6183 -62.0000
-42.2633 -15.6183 -63.0000
-42.2633 -15.6183 -64.0000
-42.2633 -15.6183 -65.0000
-42.2633 -15.6183 -66.0000
-42.2633 -15.6183 -67.0000
-42.2633 -15.6183 -68.0000
-39.6219 -14.6422 -69.0000
-39.6219 -14.6422 -70.0000
-39.6219 -14.6422 -71.0000
-39.6219 -14.6422 -72.0000
-39.6219 -14.6422 -73.0000
-39.6219 -14.6422 -74.0000
-36.9804 -13.6660 -75.0000
-36.9804 -13.6660 -76.0000
-36.9804 -13.6660 -77.0000
-34.3389 -12.6899 -78.0000
-34.3389 -12.6899 -79.0000
-34.3389 -12.6899 -80.0000
-34.3389 -12.6899 -81.0000
-34.3389 -12.6899 -82.0000
-31.6975 -11.7137 -83.0000
-31.6975 -11.7137 -84.0000
-29.0560 -10.7376 -85.0000
-29.0560 -10.7376 -86.0000
-29.0560 -10.7376 -87.0000
-26.4146 -9.7615 -88.0000
-26.4146 -9.7615 -89.0000
-23.7731 -8.7853 -90.0000
-23.7731 -8.7853 -91.0000
-21.1317 -7.8092 -92.0000
-41.5311 -17.4725 -61.0000
-44.1268 -18.5645 -62.0000
-44.1268 -18.5645 -63.0000
-44.1268 -18.5645 -64.0000
-44.1268 -18.5645 -65.0000
-44.1268 -18.5645 -66.0000
-44.1268 -18.5645 -67.0000
-41.5311 -17.4725 -68.0000
-41.5311 -17.4725 -69.0000
-41.5311 -17.4725 -70.0000
-41.5311 -17.4725 -71.0000
-38.9354 -16.3805 -72.0000
-38.9354 -16.3805 -73.0000
-38.9354 -16.3805 -74.0000
-38.9354 -16.3805 -75.0000
-38.9354 -16.3805 -76.0000
-36.3397 -15.2884 -77.0000
-36.3397 -15.2884 -78.0000
-36.3397 -15.2884 -79.0000
-33.7440 -14.1964 -80.0000
-33.7440 -14.1964 -81.0000
-33.7440 -14.1964 -82.0000
-33.7440 -14.1964 -83.0000
-31.1483 -13.1044 -84.0000
-31.1483 -13.1044 -85.0000
-28.5526 -12.0123 -86.0000
-28.5526 -12.0123 -87.0000
-28.5526 -12.0123 -88.0000
-25.9569 -10.9203 -89.0000
-23.3612 -9.8283 -90.0000
-23.3612 -9.8283 -91.0000
-20.7656 -8.7362 -92.0000
-43.2624 -20.4982 -61.0000
-43.2624 -20.4982 -62.0000
-43.2624 -20.4982 -63.0000
-43.2624 -20.4982 -64.0000
-43.2624 -20.4982 -65.0000
-43.2624 -20.4982 -66.0000
-43.2624 -20.4982 -67.0000
-43.2624 -20.4982 -68.0000
-43.2624 -20.4982 -69.0000
-43.2624 -20.4982 -70.0000
-40.7176 -19.2924 -71.0000
-40.7176 -19.2924 -72.0000
-38.1727 -18.0867 -73.0000
-38.1727 -18.0867 -74.0000
-38.1727 -18.0867 -75.0000
-38.1727 -18.0867 -76.0000
-38.1727 -18.0867 -77.0000
-35.6279 -16.8809 -78.0000
-35.6279 -16.8809 -79.0000
-35.6279 -16.8809 -80.0000
-33.0830 -15.6751 -81.0000
-33.0830 -15.6751 -82.0000
-33.0830 -15.6751 -83.0000
-33.0830 -15.6751 -84.0000
-30.5382 -14.4693 -85.0000
-30.5382 -14.4693 -86.0000
-27.9933 -13.2636 -87.0000
-27.9933 -13.2636 -88.0000
-25.4485 -12.0578 -89.0000
-22.9036 -10.8520 -90.0000
-22.9036 -10.8520 -91.0000
-20.3588 -9.6462 -92.0000
-44.8024 -23.7090 -60.0000
-42.3134 -22.3918 -61.0000
-44.8024 -23.7090 -62.0000
-42.3134 -22.3918 -63.0000
-42.3134 -22.3918 -64.0000
-42.3134 -22.3918 -65.0000
-42.3134 -22.3918 -66.0000
-42.3134 -22.3918 -67.0000
-42.3134 -22.3918 -68.0000
-42.3134 -22.3918 -69.0000
-42.3134 -22.3918 -70.0000
-42.3134 -22.3918 -71.0000
-39.8244 -21.0746 -72.0000
-39.8244 -21.0746 -73.0000
-39.8244 -21.0746 -74.0000
-37.3353 -19.7575 -75.0000
-37.3353 -19.7575 -76.0000
-37.3353 -19.7575 -77.0000
-37.3353 -19.7575 -78.0000
-37.3353 -19.7575 -79.0000
-34.8463 -18.4403 -80.0000
-34.8463 -18.4403 -81.0000
-32.3573 -17.1231 -82.0000
-32.3573 -17.1231 -83.0000
-32.3573 -17.1231 -84.0000
-32.3573 -17.1231 -85.0000
-29.8683 -15.8060 -86.0000
-27.3792 -14.4888 -87.0000
-27.3792 -14.4888 -88.0000
-27.3792 -14.4888 -89.0000
-24.8902 -13.1717 -90.0000
-22.4012 -11.8545 -91.0000
-22.4012 -11.8545 -92.0000
-46.1381 -27.0935 -60.0000
-43.7098 -25.6675 -61.0000
-43.7098 -25.6675 -62.0000
-43.7098 -25.6675 -63.0000
-43.7098 -25.6675 -64.0000
-43.7098 -25.6675 -65.0000
-43.7098 -25.6675 -66.0000
-43.7098 -25.6675 -67.0000
-41.2815 -24.2415 -68.0000
-41.2815 -24.2415 -69.0000
-41.2815 -24.2415 -70.0000
-41.2815 -24.2415 -71.0000
-41.2815 -24.2415 -72.0000
-41.2815 -24.2415 -73.0000
-38.8532 -22.8156 -74.0000
-38.8532 -22.8156 -75.0000
-38.8532 -22.8156 -76.0000
-36.4249 -21.3896 -77.0000
-36.4249 -21.3896 -78.0000
-36.4249 -21.3896 -79.0000
-36.4249 -21.3896 -80.0000
-33.9965 -19.9636 -81.0000
-33.9965 -19.9636 -82.0000
-31.5682 -18.5377 -83.0000
-31.5682 -18.5377 -84.0000
-31.5682 -18.5377 -85.0000
-29.1399 -17.1117 -86.0000
-26.7116 -15.6857 -87.0000
-26.7116 -15.6857 -88.0000
-26.7116 -15.6857 -89.0000
-24.2832 -14.2597 -90.0000
-21.8549 -12.8338 -91.0000
-21.8549 -12.8338 -92.0000
-44.8946 -29.1078 -61.0000
-44.8946 -29.1078 -62.0000
-44.8946 -29.1078 -63.0000
-44.8946 -29.1078 -64.0000
-44.8946 -29.1078 -65.0000
-44.8946 -29.1078 -66.0000
-44.8946 -29.1078 -67.0000
-42.5317 -27.5758 -68.0000
-42.5317 -27.5758 -69.0000
-42.5317 -27.5758 -70.0000
-40.1688 -26.0438 -71.0000
-40.1688 -26.0438 -72.0000
-40.1688 -26.0438 -73.0000
-40.1688 -26.0438 -74.0000
-40.1688 -26.0438 -75.0000
-37.8059 -24.5118 -76.0000
-35.4431 -22.9799 -77.0000
-35.4431 -22.9799 -78.0000
-35.4431 -22.9799 -79.0000
-35.4431 -22.9799 -80.0000
-35.4431 -22.9799 -81.0000
-33.0802 -21.4479 -82.0000
-33.0802 -21.4479 -83.0000
-30.7173 -19.9159 -84.0000
-30.7173 -19.9159 -85.0000
-30.7173 -19.9159 -86.0000
-28.3545 -18.3839 -87.0000
-25.9916 -16.8519 -88.0000
-25.9916 -16.8519 -89.0000
-23.6287 -15.3199 -90.0000
-21.2658 -13.7879 -91.0000
-21.2658 -13.7879 -92.0000
-45.8559 -32.7002 -61.0000
-45.8559 -32.7002 -62.0000
-45.8559 -32.7002 -63.0000
-43.5631 -31.0652 -64.0000
-43.5631 -31.0652 -65.0000
-43.5631 -31.0652 -66.0000
-43.5631 -31.0652 -67.0000
-43.5631 -31.0652 -68.0000
-43.5631 -31.0652 -69.0000
-41.2703 -29.4302 -70.0000
-41.2703 -29.4302 -71.0000
-38.9775 -27.7952 -72.0000
-38.9775 -27.7952 -73.0000
-38.9775 -27.7952 -74.0000
-38.9775 -27.7952 -75.0000
-38.9775 -27.7952 -76.0000
-36.6847 -26.1601 -77.0000
-34.3919 -24.5251 -78.0000
-34.3919 -24.5251 -79.0000
-34.3919 -24.5251 -80.0000
-34.3919 -24.5251 -81.0000
-34.3919 -24.5251 -82.0000
-32.0991 -22.8901 -83.0000
-29.8063 -21.2551 -84.0000
-29.8063 -21.2551 -85.0000
-29.8063 -21.2551 -86.0000
-27.5135 -19.6201 -87.0000
-25.2207 -17.9851 -88.0000
-25.2207 -17.9851 -89.0000
-22.9279 -16.3501 -90.0000
-22.9279 -16.3501 -91.0000
-46.5828 -36.4313 -61.0000
-46.5828 -36.4313 -62.0000
-44.3646 -34.6965 -63.0000
-44.3646 -34.6965 -64.0000
-44.3646 -34.6965 -65.0000
-44.3646 -34.6965 -66.0000
-42.1463 -32.9617 -67.0000
-42.1463 -32.9617 -68.0000
-42.1463 -32.9617 -69.0000
-42.1463 -32.9617 -70.0000
-42.1463 -32.9617 -71.0000
-39.9281 -31.2269 -72.0000
-39.9281 -31.2269 -73.0000
-37.7099 -29.4920 -74.0000
-37.7099 -29.4920 -75.0000
-37.7099 -29.4920 -76.0000
-37.7099 -29.4920 -77.0000
-35.4916 -27.7572 -78.0000
-35.4916 -27.7572 -79.0000
-33.2734 -26.0224 -80.0000
-33.2734 -26.0224 -81.0000
-33.2734 -26.0224 -82.0000
-31.0552 -24.2876 -83.0000
-31.0552 -24.2876 -84.0000
-28.8370 -22.5527 -85.0000
-28.8370 -22.5527 -86.0000
-28.8370 -22.5527 -87.0000
-26.6187 -20.8179 -88.0000
-24.4005 -19.0831 -89.0000
-24.4005 -19.0831 -90.0000
-22.1823 -17.3483 -91.0000
-47.0650 -40.2875 -61.0000
-47.0650 -40.2875 -62.0000
-47.0650 -40.2875 -63.0000
-44.9257 -38.4562 -64.0000
-44.9257 -38.4562 -65.0000
-44.9257 -38.4562 -66.0000
-42.7864 -36.6250 -67.0000
-42.7864 -36.6250 -68.0000
-42.7864 -36.6250 -69.0000
-40.6471 -34.7937 -70.0000
-40.6471 -34.7937 -71.0000
-40.6471 -34.7937 -72.0000
-40.6471 -34.7937 -73.0000
-38.5077 -32.9625 -74.0000
-38.5077 -32.9625 -75.0000
-36.3684 -31.1312 -76.0000
-36.3684 -31.1312 -77.0000
-36.3684 -31.1312 -78.0000
-34.2291 -29.3000 -79.0000
-34.2291 -29.3000 -80.0000
-34.2291 -29.3000 -81.0000
-32.0898 -27.4687 -82.0000
-32.0898 -27.4687 -83.0000
-29.9505 -25.6375 -84.0000
-29.9505 -25.6375 -85.0000
-27.8112 -23.8062 -86.0000
-27.8112 -23.8062 -87.0000
-25.6718 -21.9750 -88.0000
-25.6718 -21.9750 -89.0000
-23.5325 -20.1437 -90.0000
-21.3932 -18.3125 -91.0000
-45.2369 -42.3299 -64.0000
-45.2369 -42.3299 -65.0000
-45.2369 -42.3299 -66.0000
-43.1807 -40.4058 -67.0000
-43.1807 -40.4058 -68.0000
-43.1807 -40.4058 -69.0000
-41.1245 -38.4817 -70.0000
-41.1245 -38.4817 -71.0000
-41.1245 -38.4817 -72.0000
-39.0682 -36.5576 -73.0000
-39.0682 -36.5576 -74.0000
-39.0682 -36.5576 -75.0000
-37.0120 -34.6335 -76.0000
-37.0120 -34.6335 -77.0000
-34.9558 -32.7094 -78.0000
-34.9558 -32.7094 -79.0000
-32.8996 -30.7854 -80.0000
-32.8996 -30.7854 -81.0000
-32.8996 -30.7854 -82.0000
-30.8433 -28.8613 -83.0000
-30.8433 -28.8613 -84.0000
-28.7871 -26.9372 -85.0000
-28.7871 -26.9372 -86.0000
-26.7309 -25.0131 -87.0000
-26.7309 -25.0131 -88.0000
-24.6747 -23.0890 -89.0000
-22.6185 -21.1649 -90.0000
-47.2584 -48.3157 -62.0000
-47.2584 -48.3157 -63.0000
-47.2584 -48.3157 -64.0000
-45.2893 -46.3026 -65.0000
-45.2893 -46.3026 -66.0000
-43.3202 -44.2894 -68.0000
-43.3202 -44.2894 -69.0000
-43.3202 -44.2894 -70.0000
-41.3511 -42.2763 -71.0000
-41.3511 -42.2763 -72.0000
-39.3820 -40.2631 -73.0000
-39.3820 -40.2631 -74.0000
-39.3820 -40.2631 -75.0000
-37.4129 -38.2499 -76.0000
-37.4129 -38.2499 -77.0000
-35.4438 -36.2368 -78.0000
-35.4438 -36.2368 -79.0000
-33.4747 -34.2236 -80.0000
-33.4747 -34.2236 -81.0000
-31.5056 -32.2105 -82.0000
-31.5056 -32.2105 -83.0000
-29.5365 -30.1973 -84.0000
-29.5365 -30.1973 -85.0000
-27.5674 -28.1842 -86.0000
-27.5674 -28.1842 -87.0000
-25.5983 -26.1710 -88.0000
-23.6292 -24.1579 -89.0000
-41.3188 -46.1623 -71.0000
-41.3188 -46.1623 -72.0000
-39.4406 -44.0640 -74.0000
-37.5625 -41.9657 -76.0000
-35.6844 -39.8674 -78.0000
-33.8063 -37.7691 -80.0000
-33.8063 -37.7691 -81.0000
-31.9281 -35.6708 -82.0000
-30.0500 -33.5726 -84.0000
-26.2938 -29.3760 -87.0000
-145.4219 -260.6831 36.0000
-145.4219 -260.6831 35.0000
-145.4219 -260.6831 34.0000
-146.7938 -263.1424 33.0000
-146.7938 -263.1424 32.0000
-145.4219 -260.6831 31.0000
-145.4219 -260.6831 30.0000
-145.4219 -260.6831 29.0000
-145.4219 -260.6831 28.0000
-144.0500 -258.2238 27.0000
-144.0500 -258.2238 26.0000
-142.6781 -255.7646 25.0000
-142.6781 -255.7646 24.0000
-142.6781 -255.7646 23.0000
-141.3062 -253.3053 22.0000
-141.3062 -253.3053 21.0000
-139.9343 -250.8460 20.0000
-139.9343 -250.8460 19.0000
-138.5624 -248.3867 18.0000
-137.1905 -245.9274 17.0000
-137.1905 -245.9274 16.0000
-136.2722 -271.8956 41.0000
-136.2722 -271.8956 40.0000
-136.2722 -271.8956 39.0000
-137.5339 -274.4131 38.0000
-137.5339 -274.4131 37.0000
-137.5339 -274.4131 36.0000
-137.5339 -274.4131 35.0000
-137.5339 -274.4131 34.0000
-136.2722 -271.8956 33.0000
-136.2722 -271.8956 32.0000
-136.2722 -271.8956 31.0000
-136.2722 -271.8956 30.0000
-136.2722 -271.8956 29.0000
-135.0104 -269.3781 28.0000
-135.0104 -269.3781 27.0000
-135.0104 -269.3781 26.0000
-135.0104 -269.3781 25.0000
-133.7486 -266.8605 24.0000
-133.7486 -266.8605 23.0000
-132.4868 -264.3429 22.0000
-132.4868 -264.3429 21.0000
-132.4868 -264.3429 20.0000
-131.2250 -261.8254 19.0000
-129.9633 -259.3078 18.0000
-129.9633 -259.3078 17.0000
-129.9633 -259.3078 16.0000
-128.7015 -256.7903 15.0000
-128.7015 -256.7903 14.0000
-127.4397 -254.2727 13.0000
-127.4397 -254.2727 12.0000
-126.1779 -251.7552 11.0000
-124.9161 -249.2376 10.0000
-124.9161 -249.2376 9.0000
-123.6544 -246.7201 8.0000
-122.3926 -244.2025 7.0000
-122.3926 -244.2025 6.0000
-121.1308 -241.6850 5.0000
-117.3455 -234.1323 4.0000
-114.8219 -229.0972 3.0000
-114.8219 -229.0972 2.0000
-113.5601 -226.5797 1.0000
-112.2983 -224.0621 0.0000
-111.0366 -221.5446 -1.0000
-109.7748 -219.0270 -2.0000
-109.7748 -219.0270 -3.0000
-109.7748 -219.0270 -4.0000
-109.7748 -219.0270 -5.0000
-108.5130 -216.5095 -6.0000
-107.2512 -213.9919 -7.0000
-107.2512 -213.9919 -8.0000
-104.7277 -208.9568 -9.0000
-104.7277 -208.9568 -10.0000
-103.4659 -206.4392 -11.0000
-102.2041 -203.9217 -12.0000
-100.9423 -201.4041 -13.0000
-99.6806 -198.8866 -14.0000
-98.4188 -196.3690 -15.0000
-97.1570 -193.8515 -16.0000
-95.8952 -191.3339 -17.0000
-94.6334 -188.8164 -18.0000
-93.3717 -186.2988 -19.0000
-93.3717 -186.2988 -20.0000
-92.1099 -183.7813 -21.0000
-90.8481 -181.2637 -22.0000
-89.5863 -178.7462 -23.0000
-88.3246 -176.2286 -24.0000
-87.0628 -173.7111 -25.0000
-85.8010 -171.1935 -26.0000
-85.8010 -171.1935 -27.0000
-84.5392 -168.6760 -28.0000
-83.2774 -166.1584 -29.0000
-82.0157 -163.6409 -30.0000
-80.7539 -161.1233 -31.0000
-79.4921 -158.6058 -32.0000
-78.2303 -156.0882 -33.0000
-78.2303 -156.0882 -34.0000
-76.9685 -153.5706 -35.0000
-75.7068 -151.0531 -36.0000
-74.4450 -148.5356 -37.0000
-73.1832 -146.0180 -38.0000
-73.1832 -146.0180 -39.0000
-70.6596 -140.9829 -40.0000
-70.6596 -140.9829 -41.0000
-69.3979 -138.4653 -42.0000
-68.1361 -135.9478 -43.0000
-68.1361 -135.9478 -44.0000
-65.6125 -130.9127 -45.0000
-65.6125 -130.9127 -46.0000
-64.3507 -128.3951 -47.0000
-63.0890 -125.8776 -48.0000
-61.8272 -123.3600 -49.0000
-61.8272 -123.3600 -50.0000
-60.5654 -120.8425 -51.0000
-59.3036 -118.3249 -52.0000
-58.0419 -115.8074 -53.0000
-36.5916 -73.0090 -54.0000
-56.7801 -113.2898 -55.0000
-54.2565 -108.2547 -56.0000
-54.2565 -108.2547 -57.0000
-52.9947 -105.7372 -58.0000
-51.7330 -103.2196 -59.0000
-50.4712 -100.7021 -60.0000
-49.2094 -98.1845 -61.0000
-49.2094 -98.1845 -62.0000
-47.9476 -95.6670 -63.0000
-46.6858 -93.1494 -64.0000
-45.4241 -90.6319 -65.0000
-44.1623 -88.1143 -66.0000
-44.1623 -88.1143 -67.0000
-41.6387 -83.0792 -68.0000
-41.6387 -83.0792 -69.0000
-40.3769 -80.5617 -70.0000
-39.1152 -78.0441 -71.0000
-37.8534 -75.5266 -72.0000
-37.8534 -75.5266 -73.0000
-36.5916 -73.0090 -74.0000
-35.3298 -70.4915 -75.0000
-34.0680 -67.9739 -76.0000
-34.0680 -67.9739 -77.0000
-32.8063 -65.4563 -78.0000
-31.5445 -62.9388 -79.0000
-30.2827 -60.4212 -80.0000
-124.1120 -277.6573 41.0000
-124.1120 -277.6573 40.0000
-124.1120 -277.6573 39.0000
-124.1120 -277.6573 38.0000
-122.9628 -275.0863 37.0000
-122.9628 -275.0863 36.0000
-122.9628 -275.0863 35.0000
-122.9628 -275.0863 34.0000
-122.9628 -275.0863 33.0000
-122.9628 -275.0863 32.0000
-122.9628 -275.0863 31.0000
-122.9628 -275.0863 30.0000
-122.9628 -275.0863 29.0000
-122.9628 -275.0863 28.0000
-122.9628 -275.0863 27.0000
-121.8136 -272.5154 26.0000
-121.8136 -272.5154 25.0000
-121.8136 -272.5154 24.0000
-120.6644 -269.9445 23.0000
-120.6644 -269.9445 22.0000
-119.5152 -267.3736 21.0000
-119.5152 -267.3736 20.0000
-118.3660 -264.8027 19.0000
-118.3660 -264.8027 18.0000
-118.3660 -264.8027 17.0000
-117.2169 -262.2318 16.0000
-116.0677 -259.6609 15.0000
-116.0677 -259.6609 14.0000
-114.9185 -257.0900 13.0000
-114.9185 -257.0900 12.0000
-113.7693 -254.5191 11.0000
-113.7693 -254.5191 10.0000
-112.6201 -251.9482 9.0000
-111.4709 -249.3773 8.0000
-111.4709 -249.3773 7.0000
-110.3217 -246.8064 6.0000
-109.1726 -244.2355 5.0000
-109.1726 -244.2355 4.0000
-108.0234 -241.6646 3.0000
-106.8742 -239.0937 2.0000
-105.7250 -236.5228 1.0000
-104.5758 -233.9519 0.0000
-102.2775 -228.8101 -1.0000
-102.2775 -228.8101 -2.0000
-99.9791 -223.6683 -3.0000
-99.9791 -223.6683 -4.0000
-98.8299 -221.0974 -5.0000
-97.6807 -218.5265 -6.0000
-97.6807 -218.5265 -7.0000
-96.5315 -215.9556 -8.0000
-95.3824 -213.3847 -9.0000
-94.2332 -210.8138 -10.0000
-93.0840 -208.2429 -11.0000
-91.9348 -205.6720 -12.0000
-91.9348 -205.6720 -13.0000
-90.7856 -203.1011 -14.0000
-89.6364 -200.5302 -15.0000
-88.4872 -197.9593 -16.0000
-87.3381 -195.3884 -17.0000
-87.3381 -195.3884 -18.0000
-86.1889 -192.8175 -19.0000
-85.0397 -190.2466 -20.0000
-83.8905 -187.6757 -21.0000
-83.8905 -187.6757 -22.0000
-81.5921 -182.5339 -23.0000
-81.5921 -182.5339 -24.0000
-80.4429 -179.9630 -25.0000
-79.2938 -177.3921 -26.0000
-78.1446 -174.8212 -27.0000
-76.9954 -172.2503 -28.0000
-76.9954 -172.2503 -29.0000
