-53.4891 1.3029 20.0000
-53.4891 1.3029 19.0000
-53.4891 1.3029 18.0000
-53.4891 1.3029 17.0000
-53.4891 1.3029 16.0000
-53.4891 1.3029 15.0000
-53.4891 1.3029 14.0000
-53.4891 1.3029 13.0000
-53.4891 1.3029 12.0000
-53.4891 1.3029 11.0000
-53.4891 1.3029 10.0000
-53.4891 1.3029 9.0000
-53.4891 1.3029 8.0000
-53.4891 1.3029 7.0000
-53.4891 1.3029 6.0000
-53.4891 1.3029 5.0000
-53.4891 1.3029 4.0000
-56.3044 1.3715 3.0000
-56.3044 1.3715 2.0000
-56.3044 1.3715 1.0000
-56.3044 1.3715 0.0000
-56.3044 1.3715 -1.0000
-59.1196 1.4400 -2.0000
-59.1196 1.4400 -3.0000
-61.9348 1.5086 -4.0000
-61.9348 1.5086 -5.0000
-61.9348 1.5086 -6.0000
-64.7500 1.5772 -7.0000
-64.7500 1.5772 -8.0000
-67.5652 1.6458 -9.0000
-67.5652 1.6458 -10.0000
-67.5652 1.6458 -11.0000
-67.5652 1.6458 -12.0000
-67.5652 1.6458 -13.0000
-70.3805 1.7143 -14.0000
-70.3805 1.7143 -15.0000
-73.1957 1.7829 -16.0000
-73.1957 1.7829 -17.0000
-73.1957 1.7829 -18.0000
-70.3805 1.7143 -19.0000
-70.3805 1.7143 -20.0000
-70.3805 1.7143 -21.0000
-70.3805 1.7143 -22.0000
-70.3805 1.7143 -23.0000
-70.3805 1.7143 -24.0000
-70.3805 1.7143 -25.0000
-70.3805 1.7143 -26.0000
-70.3805 1.7143 -27.0000
-70.3805 1.7143 -28.0000
-70.3805 1.7143 -29.0000
-70.3805 1.7143 -30.0000
-70.3805 1.7143 -31.0000
-70.3805 1.7143 -32.0000
-70.3805 1.7143 -33.0000
-73.1957 1.7829 -34.0000
-73.1957 1.7829 -35.0000
-73.1957 1.7829 -36.0000
-73.1957 1.7829 -37.0000
-73.1957 1.7829 -38.0000
-73.1957 1.7829 -39.0000
-73.1957 1.7829 -40.0000
-73.1957 1.7829 -41.0000
-73.1957 1.7829 -42.0000
-73.1957 1.7829 -43.0000
-73.1957 1.7829 -44.0000
-73.1957 1.7829 -45.0000
-73.1957 1.7829 -46.0000
-73.1957 1.7829 -47.0000
-73.1957 1.7829 -48.0000
-73.1957 1.7829 -49.0000
-73.1957 1.7829 -50.0000
-73.1957 1.7829 -51.0000
-70.3805 1.7143 -52.0000
-70.3805 1.7143 -53.0000
-73.1957 1.7829 -54.0000
-73.1957 1.7829 -55.0000
-73.1957 1.7829 -56.0000
-73.1957 1.7829 -57.0000
-73.1957 1.7829 -58.0000
-73.1957 1.7829 -59.0000
-73.1957 1.7829 -60.0000
-73.1957 1.7829 -61.0000
-73.1957 1.7829 -62.0000
-73.1957 1.7829 -63.0000
-73.1957 1.7829 -64.0000
-73.1957 1.7829 -65.0000
-73.1957 1.7829 -66.0000
-76.0109 1.8515 -67.0000
-76.0109 1.8515 -68.0000
-76.0109 1.8515 -69.0000
-76.0109 1.8515 -70.0000
-73.1957 1.7829 -71.0000
-73.1957 1.7829 -72.0000
-76.0109 1.8515 -73.0000
-76.0109 1.8515 -74.0000
-76.0109 1.8515 -75.0000
-76.0109 1.8515 -76.0000
-76.0109 1.8515 -77.0000
-76.0109 1.8515 -78.0000
-76.0109 1.8515 -79.0000
-76.0109 1.8515 -80.0000
-76.0109 1.8515 -81.0000
-76.0109 1.8515 -82.0000
-76.0109 1.8515 -83.0000
-76.0109 1.8515 -84.0000
-76.0109 1.8515 -85.0000
-73.1957 1.7829 -86.0000
-73.1957 1.7829 -87.0000
-73.1957 1.7829 -88.0000
-73.1957 1.7829 -89.0000
-73.1957 1.7829 -90.0000
-73.1957 1.7829 -91.0000
-73.1957 1.7829 -92.0000
-73.1957 1.7829 -93.0000
-76.0109 1.8515 -94.0000
-76.0109 1.8515 -95.0000
-76.0109 1.8515 -96.0000
-73.1957 1.7829 -97.0000
-73.1957 1.7829 -98.0000
-73.1957 1.7829 -99.0000
-73.1957 1.7829 -100.0000
-73.1957 1.7829 -101.0000
-73.1957 1.7829 -102.0000
28.1522 0.6857 107.0000
39.4131 0.9600 106.0000
-30.9674 -0.7543 105.0000
-33.7826 -0.8229 104.0000
-33.7826 -0.8229 103.0000
-33.7826 -0.8229 102.0000
-33.7826 -0.8229 101.0000
-33.7826 -0.8229 100.0000
-36.5978 -0.8915 99.0000
-36.5978 -0.8915 98.0000
-36.5978 -0.8915 97.0000
-36.5978 -0.8915 96.0000
-36.5978 -0.8915 95.0000
-36.5978 -0.8915 94.0000
-39.4131 -0.9600 93.0000
-39.4131 -0.9600 92.0000
-39.4131 -0.9600 91.0000
-39.4131 -0.9600 90.0000
-42.2283 -1.0286 89.0000
-42.2283 -1.0286 88.0000
-42.2283 -1.0286 87.0000
-42.2283 -1.0286 86.0000
-42.2283 -1.0286 85.0000
-45.0435 -1.0972 84.0000
-45.0435 -1.0972 83.0000
-45.0435 -1.0972 82.0000
-45.0435 -1.0972 81.0000
-45.0435 -1.0972 80.0000
-47.8587 -1.1658 79.0000
-47.8587 -1.1658 78.0000
-47.8587 -1.1658 77.0000
-50.6739 -1.2343 76.0000
-50.6739 -1.2343 75.0000
-50.6739 -1.2343 74.0000
-50.6739 -1.2343 73.0000
-53.4891 -1.3029 72.0000
-53.4891 -1.3029 71.0000
-56.3044 -1.3715 70.0000
-56.3044 -1.3715 69.0000
-56.3044 -1.3715 68.0000
-59.1196 -1.4400 67.0000
-59.1196 -1.4400 66.0000
-59.1196 -1.4400 65.0000
-59.1196 -1.4400 64.0000
-59.1196 -1.4400 63.0000
-59.1196 -1.4400 62.0000
-61.9348 -1.5086 61.0000
-61.9348 -1.5086 60.0000
-61.9348 -1.5086 59.0000
-61.9348 -1.5086 58.0000
-61.9348 -1.5086 57.0000
-61.9348 -1.5086 56.0000
-61.9348 -1.5086 55.0000
-61.9348 -1.5086 54.0000
-61.9348 -1.5086 53.0000
-61.9348 -1.5086 52.0000
-61.9348 -1.5086 51.0000
-61.9348 -1.5086 50.0000
-61.9348 -1.5086 49.0000
-61.9348 -1.5086 48.0000
-61.9348 -1.5086 47.0000
-61.9348 -1.5086 46.0000
-61.9348 -1.5086 45.0000
-61.9348 -1.5086 44.0000
-61.9348 -1.5086 43.0000
-61.9348 -1.5086 42.0000
-61.9348 -1.5086 41.0000
-61.9348 -1.5086 40.0000
-61.9348 -1.5086 39.0000
-61.9348 -1.5086 38.0000
-61.9348 -1.5086 37.0000
-59.1196 -1.4400 36.0000
-59.1196 -1.4400 35.0000
-59.1196 -1.4400 34.0000
-56.3044 -1.3715 33.0000
-56.3044 -1.3715 32.0000
-56.3044 -1.3715 31.0000
-56.3044 -1.3715 30.0000
-53.4891 -1.3029 29.0000
-53.4891 -1.3029 28.0000
-53.4891 -1.3029 27.0000
-53.4891 -1.3029 26.0000
-53.4891 -1.3029 25.0000
-53.4891 -1.3029 24.0000
-53.4891 -1.3029 23.0000
-53.4891 -1.3029 22.0000
-53.4891 -1.3029 21.0000
-53.4891 -1.3029 20.0000
-53.4891 -1.3029 19.0000
-53.4891 -1.3029 18.0000
-53.4891 -1.3029 17.0000
-53.4891 -1.3029 16.0000
-53.4891 -1.3029 15.0000
-56.3044 -1.3715 14.0000
-56.3044 -1.3715 13.0000
-56.3044 -1.3715 12.0000
-56.3044 -1.3715 11.0000
-56.3044 -1.3715 10.0000
-53.4891 -1.3029 9.0000
-53.4891 -1.3029 8.0000
-53.4891 -1.3029 7.0000
-53.4891 -1.3029 6.0000
-53.4891 -1.3029 5.0000
-53.4891 -1.3029 4.0000
-53.4891 -1.3029 3.0000
-56.3044 -1.3715 2.0000
-56.3044 -1.3715 1.0000
-56.3044 -1.3715 0.0000
-56.3044 -1.3715 -1.0000
-59.1196 -1.4400 -2.0000
-59.1196 -1.4400 -3.0000
-61.9348 -1.5086 -4.0000
-61.9348 -1.5086 -5.0000
-61.9348 -1.5086 -6.0000
-64.7500 -1.5772 -7.0000
-64.7500 -1.5772 -8.0000
-67.5652 -1.6458 -9.0000
-67.5652 -1.6458 -10.0000
-67.5652 -1.6458 -11.0000
-67.5652 -1.6458 -12.0000
-67.5652 -1.6458 -13.0000
-67.5652 -1.6458 -14.0000
-67.5652 -1.6458 -15.0000
-67.5652 -1.6458 -16.0000
-67.5652 -1.6458 -17.0000
-67.5652 -1.6458 -18.0000
-70.3805 -1.7143 -19.0000
-70.3805 -1.7143 -20.0000
-70.3805 -1.7143 -21.0000
-70.3805 -1.7143 -22.0000
-70.3805 -1.7143 -23.0000
-70.3805 -1.7143 -24.0000
-70.3805 -1.7143 -25.0000
-70.3805 -1.7143 -26.0000
-70.3805 -1.7143 -27.0000
-73.1957 -1.7829 -28.0000
-73.1957 -1.7829 -29.0000
-73.1957 -1.7829 -30.0000
-73.1957 -1.7829 -31.0000
-73.1957 -1.7829 -32.0000
-73.1957 -1.7829 -33.0000
-73.1957 -1.7829 -34.0000
-73.1957 -1.7829 -35.0000
-73.1957 -1.7829 -36.0000
-73.1957 -1.7829 -37.0000
-73.1957 -1.7829 -38.0000
-73.1957 -1.7829 -39.0000
-73.1957 -1.7829 -40.0000
-73.1957 -1.7829 -41.0000
-73.1957 -1.7829 -42.0000
-73.1957 -1.7829 -43.0000
-73.1957 -1.7829 -44.0000
-73.1957 -1.7829 -45.0000
-73.1957 -1.7829 -46.0000
-73.1957 -1.7829 -47.0000
-73.1957 -1.7829 -48.0000
-73.1957 -1.7829 -49.0000
-73.1957 -1.7829 -50.0000
-73.1957 -1.7829 -51.0000
-73.1957 -1.7829 -52.0000
-73.1957 -1.7829 -53.0000
-73.1957 -1.7829 -54.0000
-73.1957 -1.7829 -55.0000
-73.1957 -1.7829 -56.0000
-73.1957 -1.7829 -57.0000
-73.1957 -1.7829 -58.0000
-73.1957 -1.7829 -59.0000
-76.0109 -1.8515 -60.0000
-76.0109 -1.8515 -61.0000
-76.0109 -1.8515 -62.0000
-76.0109 -1.8515 -63.0000
-76.0109 -1.8515 -64.0000
-73.1957 -1.7829 -65.0000
-73.1957 -1.7829 -66.0000
-76.0109 -1.8515 -67.0000
-76.0109 -1.8515 -68.0000
-76.0109 -1.8515 -69.0000
-76.0109 -1.8515 -70.0000
-73.1957 -1.7829 -71.0000
-73.1957 -1.7829 -72.0000
-73.1957 -1.7829 -73.0000
-73.1957 -1.7829 -74.0000
-73.1957 -1.7829 -75.0000
-76.0109 -1.8515 -76.0000
-76.0109 -1.8515 -77.0000
-76.0109 -1.8515 -78.0000
-76.0109 -1.8515 -79.0000
-76.0109 -1.8515 -80.0000
-76.0109 -1.8515 -81.0000
-76.0109 -1.8515 -82.0000
-76.0109 -1.8515 -83.0000
-76.0109 -1.8515 -84.0000
-76.0109 -1.8515 -85.0000
-73.1957 -1.7829 -86.0000
-73.1957 -1.7829 -87.0000
-73.1957 -1.7829 -88.0000
-73.1957 -1.7829 -89.0000
-73.1957 -1.7829 -90.0000
-73.1957 -1.7829 -91.0000
-73.1957 -1.7829 -92.0000
-73.1957 -1.7829 -93.0000
-73.1957 -1.7829 -94.0000
-76.0109 -1.8515 -95.0000
-76.0109 -1.8515 -96.0000
-73.1957 -1.7829 -97.0000
-73.1957 -1.7829 -98.0000
-73.1957 -1.7829 -99.0000
-73.1957 -1.7829 -100.0000
-73.1957 -1.7829 -101.0000
-73.1957 -1.7829 -102.0000
22.4683 1.6445 107.0000
33.7025 2.4667 106.0000
-30.8939 -2.2611 105.0000
-33.7025 -2.4667 104.0000
-33.7025 -2.4667 103.0000
-33.7025 -2.4667 102.0000
-33.7025 -2.4667 101.0000
-33.7025 -2.4667 100.0000
-36.5110 -2.6723 99.0000
-36.5110 -2.6723 98.0000
-36.5110 -2.6723 97.0000
-36.5110 -2.6723 96.0000
-36.5110 -2.6723 95.0000
-36.5110 -2.6723 94.0000
-39.3196 -2.8778 93.0000
-39.3196 -2.8778 92.0000
-39.3196 -2.8778 91.0000
-39.3196 -2.8778 90.0000
-42.1281 -3.0834 89.0000
-42.1281 -3.0834 88.0000
-42.1281 -3.0834 87.0000
-42.1281 -3.0834 86.0000
-42.1281 -3.0834 85.0000
-42.1281 -3.0834 84.0000
-44.9367 -3.2889 83.0000
-44.9367 -3.2889 82.0000
-44.9367 -3.2889 81.0000
-44.9367 -3.2889 80.0000
-47.7452 -3.4945 79.0000
-47.7452 -3.4945 78.0000
-47.7452 -3.4945 77.0000
-47.7452 -3.4945 76.0000
-50.5537 -3.7001 75.0000
-50.5537 -3.7001 74.0000
-50.5537 -3.7001 73.0000
-53.3623 -3.9056 72.0000
-53.3623 -3.9056 71.0000
-56.1708 -4.1112 70.0000
-56.1708 -4.1112 69.0000
-58.9794 -4.3167 68.0000
-58.9794 -4.3167 67.0000
-58.9794 -4.3167 66.0000
-58.9794 -4.3167 65.0000
-58.9794 -4.3167 64.0000
-58.9794 -4.3167 63.0000
-61.7879 -4.5223 62.0000
-61.7879 -4.5223 61.0000
-61.7879 -4.5223 60.0000
-61.7879 -4.5223 59.0000
-61.7879 -4.5223 58.0000
-61.7879 -4.5223 57.0000
-61.7879 -4.5223 56.0000
-61.7879 -4.5223 55.0000
-61.7879 -4.5223 54.0000
-61.7879 -4.5223 53.0000
-61.7879 -4.5223 52.0000
-61.7879 -4.5223 51.0000
-61.7879 -4.5223 50.0000
-61.7879 -4.5223 49.0000
-61.7879 -4.5223 48.0000
-61.7879 -4.5223 47.0000
-61.7879 -4.5223 46.0000
-61.7879 -4.5223 45.0000
-61.7879 -4.5223 44.0000
-61.7879 -4.5223 43.0000
-61.7879 -4.5223 42.0000
-61.7879 -4.5223 41.0000
-61.7879 -4.5223 40.0000
-61.7879 -4.5223 39.0000
-61.7879 -4.5223 38.0000
-58.9794 -4.3167 37.0000
-58.9794 -4.3167 36.0000
-58.9794 -4.3167 35.0000
-56.1708 -4.1112 34.0000
-56.1708 -4.1112 33.0000
-56.1708 -4.1112 32.0000
-56.1708 -4.1112 31.0000
-53.3623 -3.9056 30.0000
-53.3623 -3.9056 29.0000
-53.3623 -3.9056 28.0000
-53.3623 -3.9056 27.0000
-53.3623 -3.9056 26.0000
-53.3623 -3.9056 25.0000
-53.3623 -3.9056 24.0000
-53.3623 -3.9056 23.0000
-53.3623 -3.9056 22.0000
-53.3623 -3.9056 21.0000
-53.3623 -3.9056 20.0000
-53.3623 -3.9056 19.0000
-53.3623 -3.9056 18.0000
-53.3623 -3.9056 17.0000
-53.3623 -3.9056 16.0000
-53.3623 -3.9056 15.0000
-53.3623 -3.9056 14.0000
-53.3623 -3.9056 13.0000
-53.3623 -3.9056 12.0000
-53.3623 -3.9056 11.0000
-53.3623 -3.9056 10.0000
-53.3623 -3.9056 9.0000
-53.3623 -3.9056 8.0000
-53.3623 -3.9056 7.0000
-53.3623 -3.9056 6.0000
-53.3623 -3.9056 5.0000
-53.3623 -3.9056 4.0000
-53.3623 -3.9056 3.0000
-56.1708 -4.1112 2.0000
-56.1708 -4.1112 1.0000
-56.1708 -4.1112 0.0000
-56.1708 -4.1112 -1.0000
-58.9794 -4.3167 -2.0000
-58.9794 -4.3167 -3.0000
-61.7879 -4.5223 -4.0000
-61.7879 -4.5223 -5.0000
-61.7879 -4.5223 -6.0000
-61.7879 -4.5223 -7.0000
-64.5964 -4.7279 -8.0000
-64.5964 -4.7279 -9.0000
-67.4050 -4.9334 -10.0000
-67.4050 -4.9334 -11.0000
-67.4050 -4.9334 -12.0000
-67.4050 -4.9334 -13.0000
-67.4050 -4.9334 -14.0000
-70.2135 -5.1390 -15.0000
-67.4050 -4.9334 -16.0000
-67.4050 -4.9334 -17.0000
-70.2135 -5.1390 -18.0000
-70.2135 -5.1390 -19.0000
-70.2135 -5.1390 -20.0000
-70.2135 -5.1390 -21.0000
-70.2135 -5.1390 -22.0000
-70.2135 -5.1390 -23.0000
-70.2135 -5.1390 -24.0000
-70.2135 -5.1390 -25.0000
-70.2135 -5.1390 -26.0000
-70.2135 -5.1390 -27.0000
-73.0221 -5.3445 -28.0000
-73.0221 -5.3445 -29.0000
-73.0221 -5.3445 -30.0000
-73.0221 -5.3445 -31.0000
-73.0221 -5.3445 -32.0000
-70.2135 -5.1390 -33.0000
-73.0221 -5.3445 -34.0000
-73.0221 -5.3445 -35.0000
-73.0221 -5.3445 -36.0000
-73.0221 -5.3445 -37.0000
-73.0221 -5.3445 -38.0000
-73.0221 -5.3445 -39.0000
-73.0221 -5.3445 -40.0000
-73.0221 -5.3445 -41.0000
-73.0221 -5.3445 -42.0000
-73.0221 -5.3445 -43.0000
-73.0221 -5.3445 -44.0000
-73.0221 -5.3445 -45.0000
-73.0221 -5.3445 -46.0000
-73.0221 -5.3445 -47.0000
-73.0221 -5.3445 -48.0000
-73.0221 -5.3445 -49.0000
-73.0221 -5.3445 -50.0000
-73.0221 -5.3445 -51.0000
-73.0221 -5.3445 -52.0000
-73.0221 -5.3445 -53.0000
-73.0221 -5.3445 -54.0000
-73.0221 -5.3445 -55.0000
-73.0221 -5.3445 -56.0000
-73.0221 -5.3445 -57.0000
-73.0221 -5.3445 -58.0000
-73.0221 -5.3445 -59.0000
-73.0221 -5.3445 -60.0000
-73.0221 -5.3445 -61.0000
-73.0221 -5.3445 -62.0000
-73.0221 -5.3445 -63.0000
-73.0221 -5.3445 -64.0000
-73.0221 -5.3445 -65.0000
-73.0221 -5.3445 -66.0000
-73.0221 -5.3445 -67.0000
-73.0221 -5.3445 -68.0000
-75.8306 -5.5501 -69.0000
-75.8306 -5.5501 -70.0000
-73.0221 -5.3445 -71.0000
-73.0221 -5.3445 -72.0000
-75.8306 -5.5501 -73.0000
-75.8306 -5.5501 -74.0000
-75.8306 -5.5501 -75.0000
-75.8306 -5.5501 -76.0000
-75.8306 -5.5501 -77.0000
-73.0221 -5.3445 -78.0000
-75.8306 -5.5501 -79.0000
-75.8306 -5.5501 -80.0000
-75.8306 -5.5501 -81.0000
-75.8306 -5.5501 -82.0000
-73.0221 -5.3445 -83.0000
-75.8306 -5.5501 -84.0000
-73.0221 -5.3445 -85.0000
-73.0221 -5.3445 -86.0000
-73.0221 -5.3445 -87.0000
-73.0221 -5.3445 -88.0000
-73.0221 -5.3445 -89.0000
-73.0221 -5.3445 -90.0000
-73.0221 -5.3445 -91.0000
-73.0221 -5.3445 -92.0000
-73.0221 -5.3445 -93.0000
-73.0221 -5.3445 -94.0000
-75.8306 -5.5501 -95.0000
-73.0221 -5.3445 -96.0000
-73.0221 -5.3445 -97.0000
-73.0221 -5.3445 -98.0000
-73.0221 -5.3445 -99.0000
-73.0221 -5.3445 -100.0000
-73.0221 -5.3445 -101.0000
-73.0221 -5.3445 -102.0000
-25.1568 -3.0785 120.0000
19.5664 2.3944 107.0000
33.5424 4.1047 106.0000
-30.7472 -3.7626 105.0000
-30.7472 -3.7626 104.0000
-33.5424 -4.1047 103.0000
-33.5424 -4.1047 102.0000
-33.5424 -4.1047 101.0000
-33.5424 -4.1047 100.0000
-36.3376 -4.4467 99.0000
-36.3376 -4.4467 98.0000
-36.3376 -4.4467 97.0000
-36.3376 -4.4467 96.0000
-36.3376 -4.4467 95.0000
-36.3376 -4.4467 94.0000
-36.3376 -4.4467 93.0000
-39.1328 -4.7888 92.0000
-39.1328 -4.7888 91.0000
-39.1328 -4.7888 90.0000
-39.1328 -4.7888 89.0000
-41.9280 -5.1308 88.0000
-41.9280 -5.1308 87.0000
-41.9280 -5.1308 86.0000
-41.9280 -5.1308 85.0000
-41.9280 -5.1308 84.0000
-44.7232 -5.4729 83.0000
-44.7232 -5.4729 82.0000
-44.7232 -5.4729 81.0000
-44.7232 -5.4729 80.0000
-44.7232 -5.4729 79.0000
-47.5184 -5.8150 78.0000
-47.5184 -5.8150 77.0000
-50.3136 -6.1570 76.0000
-50.3136 -6.1570 75.0000
-50.3136 -6.1570 74.0000
-50.3136 -6.1570 73.0000
-53.1088 -6.4991 72.0000
-53.1088 -6.4991 71.0000
-53.1088 -6.4991 70.0000
-55.9040 -6.8411 69.0000
-55.9040 -6.8411 68.0000
-58.6992 -7.1832 67.0000
-58.6992 -7.1832 66.0000
-58.6992 -7.1832 65.0000
-58.6992 -7.1832 64.0000
-58.6992 -7.1832 63.0000
-61.4944 -7.5252 62.0000
-61.4944 -7.5252 61.0000
-61.4944 -7.5252 60.0000
-61.4944 -7.5252 59.0000
-61.4944 -7.5252 58.0000
-61.4944 -7.5252 57.0000
-61.4944 -7.5252 56.0000
-61.4944 -7.5252 55.0000
-61.4944 -7.5252 54.0000
-61.4944 -7.5252 53.0000
-61.4944 -7.5252 52.0000
-61.4944 -7.5252 51.0000
-61.4944 -7.5252 50.0000
-61.4944 -7.5252 49.0000
-61.4944 -7.5252 48.0000
-61.4944 -7.5252 47.0000
-61.4944 -7.5252 46.0000
-61.4944 -7.5252 45.0000
-61.4944 -7.5252 44.0000
-61.4944 -7.5252 43.0000
-61.4944 -7.5252 42.0000
-61.4944 -7.5252 41.0000
-61.4944 -7.5252 40.0000
-61.4944 -7.5252 39.0000
-61.4944 -7.5252 38.0000
-58.6992 -7.1832 37.0000
-58.6992 -7.1832 36.0000
-58.6992 -7.1832 35.0000
-55.9040 -6.8411 34.0000
-55.9040 -6.8411 33.0000
-55.9040 -6.8411 32.0000
-55.9040 -6.8411 31.0000
-53.1088 -6.4991 30.0000
-53.1088 -6.4991 29.0000
-53.1088 -6.4991 28.0000
-53.1088 -6.4991 27.0000
-53.1088 -6.4991 26.0000
-53.1088 -6.4991 25.0000
-53.1088 -6.4991 24.0000
-50.3136 -6.1570 23.0000
-50.3136 -6.1570 22.0000
-53.1088 -6.4991 21.0000
-50.3136 -6.1570 20.0000
-50.3136 -6.1570 19.0000
-50.3136 -6.1570 18.0000
-50.3136 -6.1570 17.0000
-50.3136 -6.1570 16.0000
-50.3136 -6.1570 15.0000
-50.3136 -6.1570 14.0000
-50.3136 -6.1570 13.0000
-50.3136 -6.1570 12.0000
-50.3136 -6.1570 11.0000
-50.3136 -6.1570 10.0000
-53.1088 -6.4991 9.0000
-53.1088 -6.4991 8.0000
-53.1088 -6.4991 7.0000
-53.1088 -6.4991 6.0000
-53.1088 -6.4991 5.0000
-53.1088 -6.4991 4.0000
-53.1088 -6.4991 3.0000
-55.9040 -6.8411 2.0000
-55.9040 -6.8411 1.0000
-55.9040 -6.8411 0.0000
-55.9040 -6.8411 -1.0000
-58.6992 -7.1832 -2.0000
-58.6992 -7.1832 -3.0000
-61.4944 -7.5252 -4.0000
-61.4944 -7.5252 -5.0000
-61.4944 -7.5252 -6.0000
-61.4944 -7.5252 -7.0000
-64.2896 -7.8673 -8.0000
-64.2896 -7.8673 -9.0000
-67.0848 -8.2093 -10.0000
-67.0848 -8.2093 -11.0000
-67.0848 -8.2093 -12.0000
-67.0848 -8.2093 -13.0000
-69.8800 -8.5514 -14.0000
-69.8800 -8.5514 -15.0000
-69.8800 -8.5514 -16.0000
-69.8800 -8.5514 -17.0000
-69.8800 -8.5514 -18.0000
-69.8800 -8.5514 -19.0000
-69.8800 -8.5514 -20.0000
-69.8800 -8.5514 -21.0000
-69.8800 -8.5514 -22.0000
-69.8800 -8.5514 -23.0000
-69.8800 -8.5514 -24.0000
-69.8800 -8.5514 -25.0000
-69.8800 -8.5514 -26.0000
-69.8800 -8.5514 -27.0000
-72.6752 -8.8935 -28.0000
-69.8800 -8.5514 -29.0000
-72.6752 -8.8935 -30.0000
-72.6752 -8.8935 -31.0000
-69.8800 -8.5514 -32.0000
-69.8800 -8.5514 -33.0000
-72.6752 -8.8935 -34.0000
-72.6752 -8.8935 -35.0000
-72.6752 -8.8935 -36.0000
-72.6752 -8.8935 -37.0000
-72.6752 -8.8935 -38.0000
-72.6752 -8.8935 -39.0000
-72.6752 -8.8935 -40.0000
-72.6752 -8.8935 -41.0000
-72.6752 -8.8935 -42.0000
-72.6752 -8.8935 -43.0000
-72.6752 -8.8935 -44.0000
-72.6752 -8.8935 -45.0000
-72.6752 -8.8935 -46.0000
-72.6752 -8.8935 -47.0000
-72.6752 -8.8935 -48.0000
-72.6752 -8.8935 -49.0000
-72.6752 -8.8935 -50.0000
-72.6752 -8.8935 -51.0000
-72.6752 -8.8935 -52.0000
-72.6752 -8.8935 -53.0000
-72.6752 -8.8935 -54.0000
-72.6752 -8.8935 -55.0000
-72.6752 -8.8935 -56.0000
-72.6752 -8.8935 -57.0000
-72.6752 -8.8935 -58.0000
-72.6752 -8.8935 -59.0000
-72.6752 -8.8935 -60.0000
-72.6752 -8.8935 -61.0000
-72.6752 -8.8935 -62.0000
-72.6752 -8.8935 -63.0000
-72.6752 -8.8935 -64.0000
-72.6752 -8.8935 -65.0000
-72.6752 -8.8935 -66.0000
-72.6752 -8.8935 -67.0000
-72.6752 -8.8935 -68.0000
-72.6752 -8.8935 -69.0000
-72.6752 -8.8935 -70.0000
-75.4704 -9.2355 -71.0000
-72.6752 -8.8935 -72.0000
-72.6752 -8.8935 -73.0000
-72.6752 -8.8935 -74.0000
-72.6752 -8.8935 -75.0000
-72.6752 -8.8935 -76.0000
-72.6752 -8.8935 -77.0000
-72.6752 -8.8935 -78.0000
-72.6752 -8.8935 -79.0000
-72.6752 -8.8935 -80.0000
-72.6752 -8.8935 -81.0000
-72.6752 -8.8935 -82.0000
-72.6752 -8.8935 -83.0000
-72.6752 -8.8935 -84.0000
-72.6752 -8.8935 -85.0000
-72.6752 -8.8935 -86.0000
-72.6752 -8.8935 -87.0000
-72.6752 -8.8935 -88.0000
-72.6752 -8.8935 -89.0000
-72.6752 -8.8935 -90.0000
-72.6752 -8.8935 -91.0000
-72.6752 -8.8935 -92.0000
-72.6752 -8.8935 -93.0000
-72.6752 -8.8935 -94.0000
-72.6752 -8.8935 -95.0000
-72.6752 -8.8935 -96.0000
-72.6752 -8.8935 -97.0000
-72.6752 -8.8935 -98.0000
-72.6752 -8.8935 -99.0000
-72.6752 -8.8935 -100.0000
-72.6752 -8.8935 -101.0000
-72.6752 -8.8935 -102.0000
-27.7523 -4.7774 120.0000
-27.7523 -4.7774 119.0000
-27.7523 -4.7774 118.0000
-24.9771 -4.2997 117.0000
-27.7523 -4.7774 116.0000
-27.7523 -4.7774 115.0000
22.2019 3.8219 107.0000
19.4266 3.3442 106.0000
-30.5276 -5.2552 104.0000
-33.3028 -5.7329 103.0000
-33.3028 -5.7329 102.0000
-33.3028 -5.7329 101.0000
-33.3028 -5.7329 100.0000
-33.3028 -5.7329 99.0000
-36.0780 -6.2106 98.0000
-36.0780 -6.2106 97.0000
-36.0780 -6.2106 96.0000
-36.0780 -6.2106 95.0000
-36.0780 -6.2106 94.0000
-36.0780 -6.2106 93.0000
-38.8533 -6.6884 92.0000
-38.8533 -6.6884 91.0000
-38.8533 -6.6884 90.0000
-38.8533 -6.6884 89.0000
-38.8533 -6.6884 88.0000
-41.6285 -7.1661 87.0000
-41.6285 -7.1661 86.0000
-41.6285 -7.1661 85.0000
-41.6285 -7.1661 84.0000
-44.4037 -7.6439 83.0000
-44.4037 -7.6439 82.0000
-44.4037 -7.6439 81.0000
-44.4037 -7.6439 80.0000
-44.4037 -7.6439 79.0000
-44.4037 -7.6439 78.0000
-47.1790 -8.1216 77.0000
-47.1790 -8.1216 76.0000
-49.9542 -8.5994 75.0000
-49.9542 -8.5994 74.0000
-49.9542 -8.5994 73.0000
-49.9542 -8.5994 72.0000
-52.7294 -9.0771 71.0000
-52.7294 -9.0771 70.0000
-52.7294 -9.0771 69.0000
-55.5047 -9.5548 68.0000
-58.2799 -10.0326 67.0000
-58.2799 -10.0326 66.0000
-58.2799 -10.0326 65.0000
-58.2799 -10.0326 64.0000
-58.2799 -10.0326 63.0000
-61.0551 -10.5103 62.0000
-61.0551 -10.5103 61.0000
-61.0551 -10.5103 60.0000
-63.8304 -10.9881 59.0000
-63.8304 -10.9881 58.0000
-61.0551 -10.5103 57.0000
-61.0551 -10.5103 56.0000
-61.0551 -10.5103 55.0000
-61.0551 -10.5103 54.0000
-61.0551 -10.5103 53.0000
-61.0551 -10.5103 52.0000
-61.0551 -10.5103 51.0000
-61.0551 -10.5103 50.0000
-61.0551 -10.5103 49.0000
-61.0551 -10.5103 48.0000
-61.0551 -10.5103 47.0000
-61.0551 -10.5103 46.0000
-61.0551 -10.5103 45.0000
-61.0551 -10.5103 44.0000
-61.0551 -10.5103 43.0000
-61.0551 -10.5103 42.0000
-61.0551 -10.5103 41.0000
-61.0551 -10.5103 40.0000
-61.0551 -10.5103 39.0000
-58.2799 -10.0326 38.0000
-58.2799 -10.0326 37.0000
-58.2799 -10.0326 36.0000
-55.5047 -9.5548 35.0000
-55.5047 -9.5548 34.0000
-55.5047 -9.5548 33.0000
-55.5047 -9.5548 32.0000
-52.7294 -9.0771 31.0000
-52.7294 -9.0771 30.0000
-52.7294 -9.0771 29.0000
-52.7294 -9.0771 28.0000
-52.7294 -9.0771 27.0000
-52.7294 -9.0771 26.0000
-52.7294 -9.0771 25.0000
-49.9542 -8.5994 24.0000
-49.9542 -8.5994 23.0000
-49.9542 -8.5994 22.0000
-49.9542 -8.5994 21.0000
-49.9542 -8.5994 20.0000
-49.9542 -8.5994 19.0000
-49.9542 -8.5994 18.0000
-49.9542 -8.5994 17.0000
-49.9542 -8.5994 16.0000
-49.9542 -8.5994 15.0000
-49.9542 -8.5994 14.0000
-49.9542 -8.5994 13.0000
-49.9542 -8.5994 12.0000
-49.9542 -8.5994 11.0000
-49.9542 -8.5994 10.0000
-49.9542 -8.5994 9.0000
-52.7294 -9.0771 8.0000
-52.7294 -9.0771 7.0000
-52.7294 -9.0771 6.0000
-52.7294 -9.0771 5.0000
-52.7294 -9.0771 4.0000
-52.7294 -9.0771 3.0000
-52.7294 -9.0771 2.0000
-55.5047 -9.5548 1.0000
-55.5047 -9.5548 0.0000
-55.5047 -9.5548 -1.0000
-55.5047 -9.5548 -2.0000
-58.2799 -10.0326 -3.0000
-58.2799 -10.0326 -4.0000
-61.0551 -10.5103 -5.0000
-61.0551 -10.5103 -6.0000
-61.0551 -10.5103 -7.0000
-63.8304 -10.9881 -8.0000
-63.8304 -10.9881 -9.0000
-66.6056 -11.4658 -10.0000
-66.6056 -11.4658 -11.0000
-66.6056 -11.4658 -12.0000
-66.6056 -11.4658 -13.0000
-66.6056 -11.4658 -14.0000
-69.3808 -11.9435 -15.0000
-69.3808 -11.9435 -16.0000
-69.3808 -11.9435 -17.0000
-69.3808 -11.9435 -18.0000
-69.3808 -11.9435 -19.0000
-69.3808 -11.9435 -20.0000
-69.3808 -11.9435 -21.0000
-69.3808 -11.9435 -22.0000
-69.3808 -11.9435 -23.0000
-72.1561 -12.4213 -24.0000
-72.1561 -12.4213 -25.0000
-69.3808 -11.9435 -26.0000
-72.1561 -12.4213 -27.0000
-69.3808 -11.9435 -28.0000
-69.3808 -11.9435 -29.0000
-72.1561 -12.4213 -30.0000
-72.1561 -12.4213 -31.0000
-69.3808 -11.9435 -32.0000
-69.3808 -11.9435 -33.0000
-69.3808 -11.9435 -34.0000
-69.3808 -11.9435 -35.0000
-69.3808 -11.9435 -36.0000
-69.3808 -11.9435 -37.0000
-69.3808 -11.9435 -38.0000
-69.3808 -11.9435 -39.0000
-72.1561 -12.4213 -40.0000
-72.1561 -12.4213 -41.0000
-72.1561 -12.4213 -42.0000
-72.1561 -12.4213 -43.0000
-72.1561 -12.4213 -44.0000
-72.1561 -12.4213 -45.0000
-72.1561 -12.4213 -46.0000
-72.1561 -12.4213 -47.0000
-72.1561 -12.4213 -48.0000
-72.1561 -12.4213 -49.0000
-72.1561 -12.4213 -50.0000
-72.1561 -12.4213 -51.0000
-72.1561 -12.4213 -52.0000
-72.1561 -12.4213 -53.0000
-72.1561 -12.4213 -54.0000
-72.1561 -12.4213 -55.0000
-72.1561 -12.4213 -56.0000
-72.1561 -12.4213 -57.0000
-72.1561 -12.4213 -58.0000
-72.1561 -12.4213 -59.0000
-72.1561 -12.4213 -60.0000
-72.1561 -12.4213 -61.0000
-72.1561 -12.4213 -62.0000
-72.1561 -12.4213 -63.0000
-72.1561 -12.4213 -64.0000
-72.1561 -12.4213 -65.0000
-72.1561 -12.4213 -66.0000
-72.1561 -12.4213 -67.0000
-72.1561 -12.4213 -68.0000
-72.1561 -12.4213 -69.0000
-72.1561 -12.4213 -70.0000
-72.1561 -12.4213 -71.0000
-72.1561 -12.4213 -72.0000
-74.9313 -12.8990 -73.0000
-74.9313 -12.8990 -74.0000
-74.9313 -12.8990 -75.0000
-74.9313 -12.8990 -76.0000
-72.1561 -12.4213 -77.0000
-72.1561 -12.4213 -78.0000
-72.1561 -12.4213 -79.0000
-72.1561 -12.4213 -80.0000
-72.1561 -12.4213 -81.0000
-72.1561 -12.4213 -82.0000
-72.1561 -12.4213 -83.0000
-72.1561 -12.4213 -84.0000
-72.1561 -12.4213 -85.0000
-72.1561 -12.4213 -86.0000
-72.1561 -12.4213 -87.0000
-72.1561 -12.4213 -88.0000
-72.1561 -12.4213 -89.0000
-72.1561 -12.4213 -90.0000
-72.1561 -12.4213 -91.0000
-72.1561 -12.4213 -92.0000
-72.1561 -12.4213 -93.0000
-72.1561 -12.4213 -94.0000
-72.1561 -12.4213 -95.0000
-72.1561 -12.4213 -96.0000
-72.1561 -12.4213 -97.0000
-72.1561 -12.4213 -98.0000
-69.3808 -11.9435 -99.0000
-72.1561 -12.4213 -100.0000
-72.1561 -12.4213 -101.0000
-72.1561 -12.4213 -102.0000
-27.4868 -6.1230 120.0000
-27.4868 -6.1230 119.0000
-27.4868 -6.1230 118.0000
-27.4868 -6.1230 117.0000
-27.4868 -6.1230 116.0000
-27.4868 -6.1230 115.0000
-27.4868 -6.1230 114.0000
-27.4868 -6.1230 113.0000
13.7434 3.0615 107.0000
13.7434 3.0615 106.0000
-27.4868 -6.1230 105.0000
-30.2355 -6.7352 104.0000
-32.9842 -7.3475 103.0000
-32.9842 -7.3475 102.0000
-32.9842 -7.3475 101.0000
-32.9842 -7.3475 100.0000
-32.9842 -7.3475 99.0000
-32.9842 -7.3475 98.0000
-32.9842 -7.3475 97.0000
-35.7329 -7.9598 96.0000
-35.7329 -7.9598 95.0000
-35.7329 -7.9598 94.0000
-35.7329 -7.9598 93.0000
-38.4815 -8.5721 92.0000
-38.4815 -8.5721 91.0000
-38.4815 -8.5721 90.0000
-38.4815 -8.5721 89.0000
-38.4815 -8.5721 88.0000
-38.4815 -8.5721 87.0000
-41.2302 -9.1844 86.0000
-41.2302 -9.1844 85.0000
-41.2302 -9.1844 84.0000
-41.2302 -9.1844 83.0000
-41.2302 -9.1844 82.0000
-43.9789 -9.7967 81.0000
-43.9789 -9.7967 80.0000
-43.9789 -9.7967 79.0000
-43.9789 -9.7967 78.0000
-46.7276 -10.4090 77.0000
-46.7276 -10.4090 76.0000
-46.7276 -10.4090 75.0000
-49.4763 -11.0213 74.0000
-49.4763 -11.0213 73.0000
-49.4763 -11.0213 72.0000
-52.2250 -11.6336 71.0000
-52.2250 -11.6336 70.0000
-52.2250 -11.6336 69.0000
-54.9736 -12.2459 68.0000
-57.7223 -12.8582 67.0000
-57.7223 -12.8582 66.0000
-57.7223 -12.8582 65.0000
-57.7223 -12.8582 64.0000
-57.7223 -12.8582 63.0000
-60.4710 -13.4705 62.0000
-60.4710 -13.4705 61.0000
-60.4710 -13.4705 60.0000
-63.2197 -14.0828 59.0000
-63.2197 -14.0828 58.0000
-63.2197 -14.0828 57.0000
-63.2197 -14.0828 56.0000
-63.2197 -14.0828 55.0000
-63.2197 -14.0828 54.0000
-63.2197 -14.0828 53.0000
-63.2197 -14.0828 52.0000
-60.4710 -13.4705 51.0000
-60.4710 -13.4705 50.0000
-60.4710 -13.4705 49.0000
-60.4710 -13.4705 48.0000
-60.4710 -13.4705 47.0000
-60.4710 -13.4705 46.0000
-60.4710 -13.4705 45.0000
-60.4710 -13.4705 44.0000
-60.4710 -13.4705 43.0000
-60.4710 -13.4705 42.0000
-60.4710 -13.4705 41.0000
-60.4710 -13.4705 40.0000
-60.4710 -13.4705 39.0000
-57.7223 -12.8582 38.0000
-57.7223 -12.8582 37.0000
-54.9736 -12.2459 36.0000
-54.9736 -12.2459 35.0000
-54.9736 -12.2459 34.0000
-54.9736 -12.2459 33.0000
-54.9736 -12.2459 32.0000
-52.2250 -11.6336 31.0000
-52.2250 -11.6336 30.0000
-52.2250 -11.6336 29.0000
-49.4763 -11.0213 28.0000
-49.4763 -11.0213 27.0000
-49.4763 -11.0213 26.0000
-49.4763 -11.0213 25.0000
-46.7276 -10.4090 24.0000
-46.7276 -10.4090 23.0000
-46.7276 -10.4090 22.0000
-46.7276 -10.4090 21.0000
-46.7276 -10.4090 20.0000
-46.7276 -10.4090 19.0000
-46.7276 -10.4090 18.0000
-46.7276 -10.4090 17.0000
-46.7276 -10.4090 16.0000
-46.7276 -10.4090 15.0000
-46.7276 -10.4090 14.0000
-46.7276 -10.4090 13.0000
-46.7276 -10.4090 12.0000
-46.7276 -10.4090 11.0000
-49.4763 -11.0213 10.0000
-49.4763 -11.0213 9.0000
-49.4763 -11.0213 8.0000
-49.4763 -11.0213 7.0000
-49.4763 -11.0213 6.0000
-52.2250 -11.6336 5.0000
-52.2250 -11.6336 4.0000
-52.2250 -11.6336 3.0000
-52.2250 -11.6336 2.0000
-54.9736 -12.2459 1.0000
-54.9736 -12.2459 0.0000
-54.9736 -12.2459 -1.0000
-54.9736 -12.2459 -2.0000
-57.7223 -12.8582 -3.0000
-57.7223 -12.8582 -4.0000
-60.4710 -13.4705 -5.0000
-60.4710 -13.4705 -6.0000
-60.4710 -13.4705 -7.0000
-60.4710 -13.4705 -8.0000
-63.2197 -14.0828 -9.0000
-63.2197 -14.0828 -10.0000
-63.2197 -14.0828 -11.0000
-63.2197 -14.0828 -12.0000
-65.9684 -14.6951 -13.0000
-65.9684 -14.6951 -14.0000
-68.7170 -15.3074 -15.0000
-68.7170 -15.3074 -16.0000
-68.7170 -15.3074 -17.0000
-68.7170 -15.3074 -18.0000
-68.7170 -15.3074 -19.0000
-68.7170 -15.3074 -20.0000
-68.7170 -15.3074 -21.0000
-68.7170 -15.3074 -22.0000
-68.7170 -15.3074 -23.0000
-68.7170 -15.3074 -24.0000
-68.7170 -15.3074 -25.0000
-68.7170 -15.3074 -26.0000
-68.7170 -15.3074 -27.0000
-68.7170 -15.3074 -28.0000
-68.7170 -15.3074 -29.0000
-68.7170 -15.3074 -30.0000
-71.4657 -15.9197 -31.0000
-68.7170 -15.3074 -32.0000
-68.7170 -15.3074 -33.0000
-68.7170 -15.3074 -34.0000
-68.7170 -15.3074 -35.0000
-68.7170 -15.3074 -36.0000
-68.7170 -15.3074 -37.0000
-68.7170 -15.3074 -38.0000
-68.7170 -15.3074 -39.0000
-68.7170 -15.3074 -40.0000
-71.4657 -15.9197 -41.0000
-71.4657 -15.9197 -42.0000
-71.4657 -15.9197 -43.0000
-71.4657 -15.9197 -44.0000
-71.4657 -15.9197 -45.0000
-71.4657 -15.9197 -46.0000
-71.4657 -15.9197 -47.0000
-71.4657 -15.9197 -48.0000
-71.4657 -15.9197 -49.0000
-71.4657 -15.9197 -50.0000
-71.4657 -15.9197 -51.0000
-71.4657 -15.9197 -52.0000
-71.4657 -15.9197 -53.0000
-71.4657 -15.9197 -54.0000
-71.4657 -15.9197 -55.0000
-71.4657 -15.9197 -56.0000
-71.4657 -15.9197 -57.0000
-71.4657 -15.9197 -58.0000
-71.4657 -15.9197 -59.0000
-71.4657 -15.9197 -60.0000
-71.4657 -15.9197 -61.0000
-71.4657 -15.9197 -62.0000
-71.4657 -15.9197 -63.0000
-71.4657 -15.9197 -64.0000
-71.4657 -15.9197 -65.0000
-71.4657 -15.9197 -66.0000
-71.4657 -15.9197 -67.0000
-71.4657 -15.9197 -68.0000
-71.4657 -15.9197 -69.0000
-71.4657 -15.9197 -70.0000
-71.4657 -15.9197 -71.0000
-71.4657 -15.9197 -72.0000
-71.4657 -15.9197 -73.0000
-71.4657 -15.9197 -74.0000
-71.4657 -15.9197 -75.0000
-74.2144 -16.5320 -76.0000
-74.2144 -16.5320 -77.0000
-71.4657 -15.9197 -78.0000
-71.4657 -15.9197 -79.0000
-71.4657 -15.9197 -80.0000
-74.2144 -16.5320 -81.0000
-71.4657 -15.9197 -82.0000
-71.4657 -15.9197 -83.0000
-71.4657 -15.9197 -84.0000
-71.4657 -15.9197 -85.0000
-71.4657 -15.9197 -86.0000
-71.4657 -15.9197 -87.0000
-71.4657 -15.9197 -88.0000
-71.4657 -15.9197 -89.0000
-71.4657 -15.9197 -90.0000
-71.4657 -15.9197 -91.0000
-71.4657 -15.9197 -92.0000
-71.4657 -15.9197 -93.0000
-71.4657 -15.9197 -94.0000
-71.4657 -15.9197 -95.0000
-71.4657 -15.9197 -96.0000
-71.4657 -15.9197 -97.0000
-71.4657 -15.9197 -98.0000
-68.7170 -15.3074 -99.0000
-71.4657 -15.9197 -100.0000
-71.4657 -15.9197 -101.0000
-71.4657 -15.9197 -102.0000
-24.4405 -6.7086 120.0000
-24.4405 -6.7086 119.0000
19.0093 5.2178 107.0000
8.1468 2.2362 106.0000
-27.1561 -7.4540 105.0000
-29.8717 -8.1993 104.0000
-29.8717 -8.1993 103.0000
-29.8717 -8.1993 102.0000
-29.8717 -8.1993 101.0000
-29.8717 -8.1993 100.0000
-32.5873 -8.9447 99.0000
-32.5873 -8.9447 98.0000
-32.5873 -8.9447 97.0000
-35.3029 -9.6901 96.0000
-35.3029 -9.6901 95.0000
-35.3029 -9.6901 94.0000
-35.3029 -9.6901 93.0000
-35.3029 -9.6901 92.0000
-38.0185 -10.4355 91.0000
-38.0185 -10.4355 90.0000
-38.0185 -10.4355 89.0000
-38.0185 -10.4355 88.0000
-38.0185 -10.4355 87.0000
-40.7342 -11.1809 86.0000
-40.7342 -11.1809 85.0000
-40.7342 -11.1809 84.0000
-40.7342 -11.1809 83.0000
-40.7342 -11.1809 82.0000
-43.4498 -11.9263 81.0000
-43.4498 -11.9263 80.0000
-43.4498 -11.9263 79.0000
-43.4498 -11.9263 78.0000
-46.1654 -12.6717 77.0000
-46.1654 -12.6717 76.0000
-46.1654 -12.6717 75.0000
-46.1654 -12.6717 74.0000
-48.8810 -13.4171 73.0000
-48.8810 -13.4171 72.0000
-51.5966 -14.1625 71.0000
-51.5966 -14.1625 70.0000
-51.5966 -14.1625 69.0000
-54.3122 -14.9079 68.0000
-57.0278 -15.6533 67.0000
-57.0278 -15.6533 66.0000
-57.0278 -15.6533 65.0000
-57.0278 -15.6533 64.0000
-57.0278 -15.6533 63.0000
-57.0278 -15.6533 62.0000
-59.7434 -16.3987 61.0000
-59.7434 -16.3987 60.0000
-62.4590 -17.1441 59.0000
-62.4590 -17.1441 58.0000
-62.4590 -17.1441 57.0000
-62.4590 -17.1441 56.0000
-62.4590 -17.1441 55.0000
-62.4590 -17.1441 54.0000
-62.4590 -17.1441 53.0000
-62.4590 -17.1441 52.0000
-62.4590 -17.1441 51.0000
-62.4590 -17.1441 50.0000
-62.4590 -17.1441 49.0000
-62.4590 -17.1441 48.0000
-62.4590 -17.1441 47.0000
-62.4590 -17.1441 46.0000
-59.7434 -16.3987 45.0000
-59.7434 -16.3987 44.0000
-59.7434 -16.3987 43.0000
-59.7434 -16.3987 42.0000
-59.7434 -16.3987 41.0000
-59.7434 -16.3987 40.0000
-59.7434 -16.3987 39.0000
-57.0278 -15.6533 38.0000
-57.0278 -15.6533 37.0000
-54.3122 -14.9079 36.0000
-54.3122 -14.9079 35.0000
-54.3122 -14.9079 34.0000
-54.3122 -14.9079 33.0000
-54.3122 -14.9079 32.0000
-51.5966 -14.1625 31.0000
-51.5966 -14.1625 30.0000
-51.5966 -14.1625 29.0000
-48.8810 -13.4171 28.0000
-48.8810 -13.4171 27.0000
-48.8810 -13.4171 26.0000
-48.8810 -13.4171 25.0000
-48.8810 -13.4171 24.0000
-46.1654 -12.6717 23.0000
-46.1654 -12.6717 22.0000
-46.1654 -12.6717 21.0000
-46.1654 -12.6717 20.0000
-46.1654 -12.6717 19.0000
-46.1654 -12.6717 18.0000
-48.8810 -13.4171 17.0000
-48.8810 -13.4171 16.0000
-46.1654 -12.6717 15.0000
-46.1654 -12.6717 14.0000
-46.1654 -12.6717 13.0000
-46.1654 -12.6717 12.0000
-46.1654 -12.6717 11.0000
-46.1654 -12.6717 10.0000
-48.8810 -13.4171 9.0000
-48.8810 -13.4171 8.0000
-48.8810 -13.4171 7.0000
-48.8810 -13.4171 6.0000
-48.8810 -13.4171 5.0000
-51.5966 -14.1625 4.0000
-51.5966 -14.1625 3.0000
-51.5966 -14.1625 2.0000
-54.3122 -14.9079 1.0000
-54.3122 -14.9079 0.0000
-54.3122 -14.9079 -1.0000
-54.3122 -14.9079 -2.0000
-57.0278 -15.6533 -3.0000
-57.0278 -15.6533 -4.0000
-59.7434 -16.3987 -5.0000
-59.7434 -16.3987 -6.0000
-59.7434 -16.3987 -7.0000
-59.7434 -16.3987 -8.0000
-62.4590 -17.1441 -9.0000
-62.4590 -17.1441 -10.0000
-62.4590 -17.1441 -11.0000
-62.4590 -17.1441 -12.0000
-65.1746 -17.8895 -13.0000
-65.1746 -17.8895 -14.0000
-67.8903 -18.6349 -15.0000
-67.8903 -18.6349 -16.0000
-67.8903 -18.6349 -17.0000
-65.1746 -17.8895 -18.0000
-67.8903 -18.6349 -19.0000
-67.8903 -18.6349 -20.0000
-67.8903 -18.6349 -21.0000
-67.8903 -18.6349 -22.0000
-67.8903 -18.6349 -23.0000
-67.8903 -18.6349 -24.0000
-67.8903 -18.6349 -25.0000
-67.8903 -18.6349 -26.0000
-67.8903 -18.6349 -27.0000
-67.8903 -18.6349 -28.0000
-67.8903 -18.6349 -29.0000
-67.8903 -18.6349 -30.0000
-67.8903 -18.6349 -31.0000
-67.8903 -18.6349 -32.0000
-67.8903 -18.6349 -33.0000
-67.8903 -18.6349 -34.0000
-67.8903 -18.6349 -35.0000
-67.8903 -18.6349 -36.0000
-70.6059 -19.3803 -37.0000
-70.6059 -19.3803 -38.0000
-70.6059 -19.3803 -39.0000
-67.8903 -18.6349 -40.0000
-67.8903 -18.6349 -41.0000
-67.8903 -18.6349 -42.0000
-67.8903 -18.6349 -43.0000
-70.6059 -19.3803 -44.0000
-70.6059 -19.3803 -45.0000
-70.6059 -19.3803 -46.0000
-70.6059 -19.3803 -47.0000
-70.6059 -19.3803 -48.0000
-70.6059 -19.3803 -49.0000
-70.6059 -19.3803 -50.0000
-70.6059 -19.3803 -51.0000
-70.6059 -19.3803 -52.0000
-70.6059 -19.3803 -53.0000
-70.6059 -19.3803 -54.0000
-70.6059 -19.3803 -55.0000
-70.6059 -19.3803 -56.0000
-70.6059 -19.3803 -57.0000
-70.6059 -19.3803 -58.0000
-70.6059 -19.3803 -59.0000
-70.6059 -19.3803 -60.0000
-70.6059 -19.3803 -61.0000
-70.6059 -19.3803 -62.0000
-70.6059 -19.3803 -63.0000
-70.6059 -19.3803 -64.0000
-70.6059 -19.3803 -65.0000
-70.6059 -19.3803 -66.0000
-70.6059 -19.3803 -67.0000
-70.6059 -19.3803 -68.0000
-70.6059 -19.3803 -69.0000
-70.6059 -19.3803 -70.0000
-70.6059 -19.3803 -71.0000
-70.6059 -19.3803 -72.0000
-70.6059 -19.3803 -73.0000
-70.6059 -19.3803 -74.0000
-70.6059 -19.3803 -75.0000
-73.3215 -20.1257 -76.0000
-73.3215 -20.1257 -77.0000
-73.3215 -20.1257 -78.0000
-73.3215 -20.1257 -79.0000
-73.3215 -20.1257 -80.0000
-73.3215 -20.1257 -81.0000
-73.3215 -20.1257 -82.0000
-70.6059 -19.3803 -83.0000
-70.6059 -19.3803 -84.0000
-70.6059 -19.3803 -85.0000
-70.6059 -19.3803 -86.0000
-70.6059 -19.3803 -87.0000
-70.6059 -19.3803 -88.0000
-70.6059 -19.3803 -89.0000
-70.6059 -19.3803 -90.0000
-70.6059 -19.3803 -91.0000
-70.6059 -19.3803 -92.0000
-70.6059 -19.3803 -93.0000
-70.6059 -19.3803 -94.0000
-70.6059 -19.3803 -95.0000
-70.6059 -19.3803 -96.0000
-70.6059 -19.3803 -97.0000
-70.6059 -19.3803 -98.0000
-67.8903 -18.6349 -99.0000
-70.6059 -19.3803 -100.0000
-70.6059 -19.3803 -101.0000
-70.6059 -19.3803 -102.0000
-26.7610 -8.7673 120.0000
-26.7610 -8.7673 119.0000
-26.7610 -8.7673 118.0000
-26.7610 -8.7673 117.0000
-26.7610 -8.7673 116.0000
-26.7610 -8.7673 115.0000
-24.0849 -7.8906 114.0000
-24.0849 -7.8906 113.0000
-24.0849 -7.8906 112.0000
0.0000 0.0000 108.0000
10.7044 3.5069 107.0000
-5.3522 -1.7535 106.0000
-26.7610 -8.7673 105.0000
-26.7610 -8.7673 104.0000
-29.4371 -9.6440 103.0000
-29.4371 -9.6440 102.0000
-29.4371 -9.6440 101.0000
-29.4371 -9.6440 100.0000
-32.1132 -10.5207 99.0000
-32.1132 -10.5207 98.0000
-32.1132 -10.5207 97.0000
-32.1132 -10.5207 96.0000
-32.1132 -10.5207 95.0000
-32.1132 -10.5207 94.0000
-34.7893 -11.3975 93.0000
-34.7893 -11.3975 92.0000
-34.7893 -11.3975 91.0000
-37.4654 -12.2742 90.0000
-37.4654 -12.2742 89.0000
-37.4654 -12.2742 88.0000
-37.4654 -12.2742 87.0000
-37.4654 -12.2742 86.0000
-40.1415 -13.1509 85.0000
-40.1415 -13.1509 84.0000
-40.1415 -13.1509 83.0000
-40.1415 -13.1509 82.0000
-42.8176 -14.0277 81.0000
-42.8176 -14.0277 80.0000
-42.8176 -14.0277 79.0000
-42.8176 -14.0277 78.0000
-42.8176 -14.0277 77.0000
-45.4937 -14.9044 76.0000
-45.4937 -14.9044 75.0000
-45.4937 -14.9044 74.0000
-48.1698 -15.7811 73.0000
-48.1698 -15.7811 72.0000
-50.8459 -16.6578 71.0000
-50.8459 -16.6578 70.0000
-50.8459 -16.6578 69.0000
-53.5220 -17.5346 68.0000
-53.5220 -17.5346 67.0000
-56.1981 -18.4113 66.0000
-56.1981 -18.4113 65.0000
-56.1981 -18.4113 64.0000
-56.1981 -18.4113 63.0000
-56.1981 -18.4113 62.0000
-56.1981 -18.4113 61.0000
-58.8742 -19.2880 60.0000
-58.8742 -19.2880 59.0000
-58.8742 -19.2880 58.0000
-58.8742 -19.2880 57.0000
-61.5503 -20.1648 56.0000
-61.5503 -20.1648 55.0000
-61.5503 -20.1648 54.0000
-61.5503 -20.1648 53.0000
-61.5503 -20.1648 52.0000
-61.5503 -20.1648 51.0000
-61.5503 -20.1648 50.0000
-61.5503 -20.1648 49.0000
-61.5503 -20.1648 48.0000
-61.5503 -20.1648 47.0000
-61.5503 -20.1648 46.0000
-58.8742 -19.2880 45.0000
-58.8742 -19.2880 44.0000
-58.8742 -19.2880 43.0000
-58.8742 -19.2880 42.0000
-58.8742 -19.2880 41.0000
-58.8742 -19.2880 40.0000
-56.1981 -18.4113 39.0000
-56.1981 -18.4113 38.0000
-56.1981 -18.4113 37.0000
-53.5220 -17.5346 36.0000
-53.5220 -17.5346 35.0000
-53.5220 -17.5346 34.0000
-53.5220 -17.5346 33.0000
-50.8459 -16.6578 32.0000
-50.8459 -16.6578 31.0000
-50.8459 -16.6578 30.0000
-48.1698 -15.7811 29.0000
-48.1698 -15.7811 28.0000
-48.1698 -15.7811 27.0000
-48.1698 -15.7811 26.0000
-48.1698 -15.7811 25.0000
-48.1698 -15.7811 24.0000
-48.1698 -15.7811 23.0000
-48.1698 -15.7811 22.0000
-48.1698 -15.7811 21.0000
-48.1698 -15.7811 20.0000
-48.1698 -15.7811 19.0000
-48.1698 -15.7811 18.0000
-48.1698 -15.7811 17.0000
-48.1698 -15.7811 16.0000
-48.1698 -15.7811 15.0000
-48.1698 -15.7811 14.0000
-48.1698 -15.7811 13.0000
-48.1698 -15.7811 12.0000
-48.1698 -15.7811 11.0000
-48.1698 -15.7811 10.0000
-48.1698 -15.7811 9.0000
-48.1698 -15.7811 8.0000
-48.1698 -15.7811 7.0000
-48.1698 -15.7811 6.0000
-48.1698 -15.7811 5.0000
-50.8459 -16.6578 4.0000
-50.8459 -16.6578 3.0000
-50.8459 -16.6578 2.0000
-53.5220 -17.5346 1.0000
-53.5220 -17.5346 0.0000
-53.5220 -17.5346 -1.0000
-53.5220 -17.5346 -2.0000
-56.1981 -18.4113 -3.0000
-56.1981 -18.4113 -4.0000
-58.8742 -19.2880 -5.0000
-58.8742 -19.2880 -6.0000
-58.8742 -19.2880 -7.0000
-58.8742 -19.2880 -8.0000
-61.5503 -20.1648 -9.0000
-61.5503 -20.1648 -10.0000
-61.5503 -20.1648 -11.0000
-61.5503 -20.1648 -12.0000
-61.5503 -20.1648 -13.0000
-64.2264 -21.0415 -14.0000
-61.5503 -20.1648 -15.0000
-64.2264 -21.0415 -16.0000
-64.2264 -21.0415 -17.0000
-64.2264 -21.0415 -18.0000
-66.9025 -21.9182 -19.0000
-66.9025 -21.9182 -20.0000
-66.9025 -21.9182 -21.0000
-64.2264 -21.0415 -22.0000
-64.2264 -21.0415 -23.0000
-66.9025 -21.9182 -24.0000
-66.9025 -21.9182 -25.0000
-66.9025 -21.9182 -26.0000
-66.9025 -21.9182 -27.0000
-66.9025 -21.9182 -28.0000
-66.9025 -21.9182 -29.0000
-66.9025 -21.9182 -30.0000
-66.9025 -21.9182 -31.0000
-66.9025 -21.9182 -32.0000
-66.9025 -21.9182 -33.0000
-66.9025 -21.9182 -34.0000
-66.9025 -21.9182 -35.0000
-66.9025 -21.9182 -36.0000
-66.9025 -21.9182 -37.0000
-66.9025 -21.9182 -38.0000
-66.9025 -21.9182 -39.0000
-66.9025 -21.9182 -40.0000
-66.9025 -21.9182 -41.0000
-66.9025 -21.9182 -42.0000
-66.9025 -21.9182 -43.0000
-69.5786 -22.7949 -44.0000
-69.5786 -22.7949 -45.0000
-69.5786 -22.7949 -46.0000
-66.9025 -21.9182 -47.0000
-66.9025 -21.9182 -48.0000
-66.9025 -21.9182 -49.0000
-69.5786 -22.7949 -50.0000
-69.5786 -22.7949 -51.0000
-69.5786 -22.7949 -52.0000
-69.5786 -22.7949 -53.0000
-69.5786 -22.7949 -54.0000
-69.5786 -22.7949 -55.0000
-69.5786 -22.7949 -56.0000
-69.5786 -22.7949 -57.0000
-69.5786 -22.7949 -58.0000
-69.5786 -22.7949 -59.0000
-69.5786 -22.7949 -60.0000
-69.5786 -22.7949 -61.0000
-69.5786 -22.7949 -62.0000
-69.5786 -22.7949 -63.0000
-69.5786 -22.7949 -64.0000
-69.5786 -22.7949 -65.0000
-69.5786 -22.7949 -66.0000
-69.5786 -22.7949 -67.0000
-69.5786 -22.7949 -68.0000
-69.5786 -22.7949 -69.0000
-69.5786 -22.7949 -70.0000
-69.5786 -22.7949 -71.0000
-69.5786 -22.7949 -72.0000
-69.5786 -22.7949 -73.0000
-69.5786 -22.7949 -74.0000
-69.5786 -22.7949 -75.0000
-69.5786 -22.7949 -76.0000
-69.5786 -22.7949 -77.0000
-69.5786 -22.7949 -78.0000
-69.5786 -22.7949 -79.0000
-69.5786 -22.7949 -80.0000
-69.5786 -22.7949 -81.0000
-72.2547 -23.6717 -82.0000
-69.5786 -22.7949 -83.0000
-69.5786 -22.7949 -84.0000
-69.5786 -22.7949 -85.0000
-69.5786 -22.7949 -86.0000
-69.5786 -22.7949 -87.0000
-69.5786 -22.7949 -88.0000
-69.5786 -22.7949 -89.0000
-69.5786 -22.7949 -90.0000
-69.5786 -22.7949 -91.0000
-69.5786 -22.7949 -92.0000
-69.5786 -22.7949 -93.0000
-69.5786 -22.7949 -94.0000
-69.5786 -22.7949 -95.0000
-69.5786 -22.7949 -96.0000
-69.5786 -22.7949 -97.0000
-69.5786 -22.7949 -98.0000
-66.9025 -21.9182 -99.0000
-69.5786 -22.7949 -100.0000
-69.5786 -22.7949 -101.0000
-69.5786 -22.7949 -102.0000
7.8907 3.0179 107.0000
-7.8907 -3.0179 106.0000
-28.9326 -11.0658 105.0000
-26.3024 -10.0598 104.0000
-28.9326 -11.0658 103.0000
-28.9326 -11.0658 102.0000
-28.9326 -11.0658 101.0000
-28.9326 -11.0658 100.0000
-28.9326 -11.0658 99.0000
-31.5629 -12.0718 98.0000
-31.5629 -12.0718 97.0000
-31.5629 -12.0718 96.0000
-31.5629 -12.0718 95.0000
-31.5629 -12.0718 94.0000
-31.5629 -12.0718 93.0000
-34.1931 -13.0778 92.0000
-34.1931 -13.0778 91.0000
-34.1931 -13.0778 90.0000
-36.8233 -14.0837 89.0000
-36.8233 -14.0837 88.0000
-36.8233 -14.0837 87.0000
-36.8233 -14.0837 86.0000
-36.8233 -14.0837 85.0000
-39.4536 -15.0897 84.0000
-39.4536 -15.0897 83.0000
-39.4536 -15.0897 82.0000
-39.4536 -15.0897 81.0000
-42.0838 -16.0957 80.0000
-42.0838 -16.0957 79.0000
-42.0838 -16.0957 78.0000
-42.0838 -16.0957 77.0000
-44.7141 -17.1017 76.0000
-44.7141 -17.1017 75.0000
-44.7141 -17.1017 74.0000
-44.7141 -17.1017 73.0000
-47.3443 -18.1077 72.0000
-47.3443 -18.1077 71.0000
-49.9745 -19.1136 70.0000
-49.9745 -19.1136 69.0000
-52.6048 -20.1196 68.0000
-52.6048 -20.1196 67.0000
-52.6048 -20.1196 66.0000
-55.2350 -21.1256 65.0000
-55.2350 -21.1256 64.0000
-55.2350 -21.1256 63.0000
-55.2350 -21.1256 62.0000
-55.2350 -21.1256 61.0000
-57.8653 -22.1316 60.0000
-57.8653 -22.1316 59.0000
-57.8653 -22.1316 58.0000
-57.8653 -22.1316 57.0000
-57.8653 -22.1316 56.0000
-57.8653 -22.1316 55.0000
-57.8653 -22.1316 54.0000
-57.8653 -22.1316 53.0000
-57.8653 -22.1316 52.0000
-57.8653 -22.1316 51.0000
-57.8653 -22.1316 50.0000
-57.8653 -22.1316 49.0000
-57.8653 -22.1316 48.0000
-60.4955 -23.1376 47.0000
-57.8653 -22.1316 46.0000
-57.8653 -22.1316 45.0000
-57.8653 -22.1316 44.0000
-57.8653 -22.1316 43.0000
-57.8653 -22.1316 42.0000
-55.2350 -21.1256 41.0000
-55.2350 -21.1256 40.0000
-55.2350 -21.1256 39.0000
-55.2350 -21.1256 38.0000
-52.6048 -20.1196 37.0000
-52.6048 -20.1196 36.0000
-52.6048 -20.1196 35.0000
-52.6048 -20.1196 34.0000
-49.9745 -19.1136 33.0000
-49.9745 -19.1136 32.0000
-49.9745 -19.1136 31.0000
-47.3443 -18.1077 30.0000
-47.3443 -18.1077 29.0000
-47.3443 -18.1077 28.0000
-47.3443 -18.1077 27.0000
-47.3443 -18.1077 26.0000
-47.3443 -18.1077 25.0000
-47.3443 -18.1077 24.0000
-47.3443 -18.1077 23.0000
-47.3443 -18.1077 22.0000
-47.3443 -18.1077 21.0000
-47.3443 -18.1077 20.0000
-47.3443 -18.1077 19.0000
-47.3443 -18.1077 18.0000
-47.3443 -18.1077 17.0000
-47.3443 -18.1077 16.0000
-47.3443 -18.1077 15.0000
-47.3443 -18.1077 14.0000
-47.3443 -18.1077 13.0000
-47.3443 -18.1077 12.0000
-47.3443 -18.1077 11.0000
-47.3443 -18.1077 10.0000
-47.3443 -18.1077 9.0000
-47.3443 -18.1077 8.0000
-47.3443 -18.1077 7.0000
-47.3443 -18.1077 6.0000
-47.3443 -18.1077 5.0000
-47.3443 -18.1077 4.0000
-49.9745 -19.1136 3.0000
-49.9745 -19.1136 2.0000
-49.9745 -19.1136 1.0000
-52.6048 -20.1196 0.0000
-52.6048 -20.1196 -1.0000
-52.6048 -20.1196 -2.0000
-52.6048 -20.1196 -3.0000
-55.2350 -21.1256 -4.0000
-55.2350 -21.1256 -5.0000
-57.8653 -22.1316 -6.0000
-57.8653 -22.1316 -7.0000
-57.8653 -22.1316 -8.0000
-57.8653 -22.1316 -9.0000
-60.4955 -23.1376 -10.0000
-60.4955 -23.1376 -11.0000
-60.4955 -23.1376 -12.0000
-60.4955 -23.1376 -13.0000
-60.4955 -23.1376 -14.0000
-60.4955 -23.1376 -15.0000
-60.4955 -23.1376 -16.0000
-60.4955 -23.1376 -17.0000
-60.4955 -23.1376 -18.0000
-63.1257 -24.1435 -19.0000
-63.1257 -24.1435 -20.0000
-65.7560 -25.1495 -21.0000
-65.7560 -25.1495 -22.0000
-63.1257 -24.1435 -23.0000
-65.7560 -25.1495 -24.0000
-65.7560 -25.1495 -25.0000
-65.7560 -25.1495 -26.0000
-63.1257 -24.1435 -27.0000
-63.1257 -24.1435 -28.0000
-63.1257 -24.1435 -29.0000
-63.1257 -24.1435 -30.0000
-63.1257 -24.1435 -31.0000
-63.1257 -24.1435 -32.0000
-63.1257 -24.1435 -33.0000
-63.1257 -24.1435 -34.0000
-65.7560 -25.1495 -35.0000
-65.7560 -25.1495 -36.0000
-65.7560 -25.1495 -37.0000
-63.1257 -24.1435 -38.0000
-63.1257 -24.1435 -39.0000
-65.7560 -25.1495 -40.0000
-65.7560 -25.1495 -41.0000
-65.7560 -25.1495 -42.0000
-65.7560 -25.1495 -43.0000
-68.3862 -26.1555 -44.0000
-65.7560 -25.1495 -45.0000
-68.3862 -26.1555 -46.0000
-65.7560 -25.1495 -47.0000
-65.7560 -25.1495 -48.0000
-65.7560 -25.1495 -49.0000
-68.3862 -26.1555 -50.0000
-68.3862 -26.1555 -51.0000
-68.3862 -26.1555 -52.0000
-68.3862 -26.1555 -53.0000
-68.3862 -26.1555 -54.0000
-68.3862 -26.1555 -55.0000
-68.3862 -26.1555 -56.0000
-68.3862 -26.1555 -57.0000
-68.3862 -26.1555 -58.0000
-68.3862 -26.1555 -59.0000
-68.3862 -26.1555 -60.0000
-68.3862 -26.1555 -61.0000
-68.3862 -26.1555 -62.0000
-68.3862 -26.1555 -63.0000
-68.3862 -26.1555 -64.0000
-68.3862 -26.1555 -65.0000
-68.3862 -26.1555 -66.0000
-68.3862 -26.1555 -67.0000
-68.3862 -26.1555 -68.0000
-68.3862 -26.1555 -69.0000
-68.3862 -26.1555 -70.0000
-68.3862 -26.1555 -71.0000
-68.3862 -26.1555 -72.0000
-68.3862 -26.1555 -73.0000
-68.3862 -26.1555 -74.0000
-68.3862 -26.1555 -75.0000
-68.3862 -26.1555 -76.0000
-68.3862 -26.1555 -77.0000
-68.3862 -26.1555 -78.0000
-68.3862 -26.1555 -79.0000
-68.3862 -26.1555 -80.0000
-68.3862 -26.1555 -81.0000
-68.3862 -26.1555 -82.0000
-68.3862 -26.1555 -83.0000
-68.3862 -26.1555 -84.0000
-68.3862 -26.1555 -85.0000
-68.3862 -26.1555 -86.0000
-68.3862 -26.1555 -87.0000
-68.3862 -26.1555 -88.0000
-68.3862 -26.1555 -89.0000
-68.3862 -26.1555 -90.0000
-68.3862 -26.1555 -91.0000
-68.3862 -26.1555 -92.0000
-68.3862 -26.1555 -93.0000
-68.3862 -26.1555 -94.0000
-68.3862 -26.1555 -95.0000
-68.3862 -26.1555 -96.0000
-68.3862 -26.1555 -97.0000
-68.3862 -26.1555 -98.0000
-65.7560 -25.1495 -99.0000
-68.3862 -26.1555 -100.0000
-68.3862 -26.1555 -101.0000
-68.3862 -26.1555 -102.0000
25.7814 11.3285 108.0000
5.1563 2.2657 107.0000
-23.2033 -10.1956 106.0000
-25.7814 -11.3285 105.0000
-25.7814 -11.3285 104.0000
-28.3596 -12.4613 103.0000
-28.3596 -12.4613 102.0000
-28.3596 -12.4613 101.0000
-28.3596 -12.4613 100.0000
-28.3596 -12.4613 99.0000
-30.9377 -13.5942 98.0000
-30.9377 -13.5942 97.0000
-30.9377 -13.5942 96.0000
-30.9377 -13.5942 95.0000
-30.9377 -13.5942 94.0000
-30.9377 -13.5942 93.0000
-33.5158 -14.7270 92.0000
-33.5158 -14.7270 91.0000
-33.5158 -14.7270 90.0000
-36.0940 -15.8599 89.0000
-36.0940 -15.8599 88.0000
-36.0940 -15.8599 87.0000
-36.0940 -15.8599 86.0000
-36.0940 -15.8599 85.0000
-38.6721 -16.9927 84.0000
